# 3D point list with one line of data per point:
#   POINT3D_ID, X, Y, Z, R, G, B, ERROR, TRACK[] as (IMAGE_ID, POINT2D_IDX)
# Number of points: 267, mean track length: 9.1742652599849279
4813 0.047727219928518652 0.59548960416723862 2.4913685406098063 22 17 16 1.0491455889958243 29 454 27 364 25 385 28 353 26 376 24 271 22 242 19 227 21 259 16 238 15 210 17 213 18 221 20 338 14 228 13 228 11 312 12 300 9 294 8 294 8 348 6 294 7 278 4 298 3 278 1 278 5 265
4812 -1.0015213901077185 1.2938351117180398 1.8928322702476361 9 11 8 1.3874197534373511 30 553 27 526 26 501 25 501 33 377 32 466 31 441 30 353 29 350 28 414 27 344 22 314 24 337 19 280 20 392 21 450 16 291 16 431 15 417 17 267 18 281 18 416 14 296 14 426 13 351 12 400 10 285 9 395 8 279 6 400 7 262 7 421 3 256 4 400 1 396 5 248 2 256 2 381
4810 -0.84899468419600532 1.099938704999341 1.4596613586080696 15 14 12 1.096389921136552 26 581 25 581 24 561 9 479 10 498 11 487 8 479 6 488 7 461 3 460 4 488 5 439 2 467
4807 -0.018509642508087933 0.8056926747469203 2.2954478277458286 74 62 62 0.64273830681652 26 545 25 541 24 523 23 487 22 494 21 494 13 459 12 459 10 465 8 449 6 451 7 428 4 454 2 436
4805 -0.51297179977101959 1.2118106495828811 1.8875503939030305 73 64 57 0.32553273592839066 26 536 25 533 24 530 23 476 24 512 22 483 19 475 20 507 21 483 16 477 15 462 17 432 18 451 14 476 13 449 11 459 12 448 10 456
4804 -0.51183387296976302 1.2152467404300487 1.9034763905733059 73 64 57 0.36448691241243253 26 535 25 532 24 513 23 477 22 484 20 508 21 484 16 476 15 461 17 433 18 452 14 475 13 450 11 460 12 447 10 455 9 439 8 434 7 418 1 392
4803 -0.82830997763160019 1.0491974789741372 2.4276130059002665 11 13 8 1.5553907153963495 26 526 25 523 24 450 23 424 22 423 19 406 20 449 21 418 16 408 15 393 17 369 18 385 14 405 13 386 12 373 10 396 7 404 4 428
4802 0.014255338298655468 1.0585013786339537 2.2330284387546913 0 1 0 0.47087507023822978 26 522 25 519 23 464 16 461 15 452 17 424 11 443 12 436 10 444 9 426 6 429 3 404 4 432 1 424 2 411
4801 -1.1604494357142467 0.98637453572952594 2.651713630720415 7 12 12 0.45068387425813117 30 538 25 518 24 498 23 461 22 474 19 463 20 443 21 472 16 403 15 444 17 414 18 440 14 454 13 381 12 428 10 437 9 420 8 413 3 401
4800 0.079355329609876082 0.99815824336466608 2.318557779701945 23 23 22 0.66527749413394044 26 518 25 515 24 497 23 460 19 465 15 447 13 436 12 431 5 388 1 420 2 407
4799 0.19894610619462788 1.3742014785192829 2.0787734101398394 56 52 49 0.2761851474084136 27 476 25 497 24 478 22 487 20 515 21 489 16 482 14 483 12 453 9 397 6 402 7 376 3 382 4 404 1 398 2 384
4798 -0.13208309292996911 0.75007175140296622 2.4010000221952197 33 34 32 0.43051093030843723 26 462 25 474 24 436 22 407 20 429
4797 -0.3843131128962875 1.5684947358498496 2.0451427692953459 28 32 31 0.25011657661778058 26 449 25 464 24 427 23 396 10 362 9 352
4796 -0.80459260034116664 1.4903751555066891 2.0855271799873889 0 3 0 0.31264666663850349 26 447 25 462 24 345 15 296 14 317 11 368 12 292
4795 -0.29442964878899097 1.1816556754859264 1.9693168756267672 85 75 75 0.13998521463685842 26 424 25 436 24 390 22 371 20 383 16 355 15 357 17 330 14 365 1 319 3 315 2 311
4794 -0.64202665797123992 1.0151307780064784 1.5466996321800968 95 90 84 1.0767102592852005 26 414 25 427 9 327 3 307 2 304
4792 0.10423136778038665 1.0519248004143085 2.2645953366190916 0 1 0 0.34440757890844803 26 400 25 405 24 447 23 422 22 422 19 408 20 361 21 421 16 409 15 394 17 371 18 386 14 407 13 387 11 392 12 375 10 398 9 373 8 313 6 318 7 354 2 360
4789 -0.7913655452535906 0.74512954608851878 2.5022387092616745 218 212 221 0.61847014608201856 26 387 25 391 24 352 20 344 21 341
4788 -1.0352678915452889 1.5050631965083467 1.9074187416852695 16 21 17 1.454546827116947 26 453 25 382 19 302 15 304 13 305 11 308 12 297 10 228 10 312 8 290 3 275
4787 -1.0357274995459429 1.5217275798749166 1.9634275975366666 16 21 17 1.781373121517094 26 452 25 381 20 417 16 385 15 303 19 301 18 366 14 383 13 304 11 307 12 296 10 227 10 311 20 416 8 289 3 274 2 266
4786 -0.78058655397636567 1.5033254390628017 2.0351097259061173 19 24 20 0.26147843751845617 26 374 25 377 16 309 15 299 14 320 12 294
4785 -0.50717337300993537 1.4616778294986175 2.0386140757563926 1 2 0 0.43176480165139319 26 367 25 370 24 418 23 389 22 395 19 369 20 406 21 389 16 305 15 373 17 278 17 343 18 298 14 381 13 295 11 366 12 350 10 304 9 346 8 341 6 351 7 381 3 387 4 408 1 335 5 317 2 386
4784 -0.97997967679643594 1.2587279593542904 1.8846691721736388 89 83 78 0.22891895060090264 26 355 25 359 16 288 21 237 15 271 18 208 14 212 13 214 11 216 12 275 10 215 9 277 6 207 7 187 3 190 4 277 1 259 5 242 2 184
4782 0.17064961606668227 1.4111177447165175 2.0758753968157646 19 19 17 0.34337793441079745 26 348 25 353 24 336 23 315 19 289 20 313 15 284 17 273 14 302
4780 -0.11533526473381847 1.3365466301472058 2.0256174561636193 27 23 20 0.25719188316942709 28 241 25 350 22 308 20 308 11 291
4779 -0.44910582696103535 1.1222834500529009 1.9686278302680751 50 45 41 0.24800279037486139 26 330 25 335 24 309 23 294 19 264 22 289 20 285 21 299 16 270 15 253 17 251 18 263 14 195 13 272 11 266 12 258 10 268 9 192 8 191 1 172
4778 -0.64517402095447973 0.81617724755546939 2.2456398296725331 3 5 2 1.2515282834352437 26 391 25 303 19 236 21 347 16 253 16 328 17 223 18 233 11 322 12 140 14 26 9 304 8 221 6 236 4 220 5 194 5 275
4777 -0.070724957227828011 0.83684096220005189 2.2177313659617628 72 63 60 0.21385539853984389 27 278 25 301 22 346 23 250 24 357 19 317 20 348 16 329 15 321 17 300 18 313 14 337 13 242 13 318 15 224 12 313
4774 -1.0900576155974191 1.1146401910805757 2.1895168230628399 86 77 75 0.21500344572013591 26 334 25 237 24 229 22 209 19 85 20 86 16 85 15 72 17 81 18 189 14 86 13 86 11 184 12 182 10 193 9 180 8 182 6 184 7 164 4 176
4773 -0.97168015932249019 1.1018237905278649 2.105137435133337 20 18 18 0.29547982525412048 26 246 25 234 24 101 23 85 22 90 19 84 20 85 17 79 18 76 13 85 12 83 10 76 9 65 8 66 6 183 7 162 3 169 4 178 1 161
4771 0.028342541738227409 1.1195979709616279 2.0082331390371078 67 62 58 0.20484065469588053 26 229 25 222 23 191 22 205 20 195 21 208 16 199 15 181 14 191 11 189 10 195 9 183 8 184 3 172 4 179 5 160 2 163
4769 -0.42616433797273556 0.66995171053847735 2.2296835915416255 71 69 65 0.31225328427966204 26 182 25 176 24 171 9 119 6 129 7 111 4 116
4766 -0.94089708451701937 1.2204309344972271 1.8875647949897896 84 74 74 0.2445250092188066 28 115 25 151 24 141 22 126 16 111 18 103 14 109 13 116 11 98 12 103 10 102 8 85 6 102
4760 -0.3232878405519331 1.1620303649792154 1.9648880938834035 10 11 7 0.58664899131480563 27 90 25 120 24 113 19 195 20 200 11 88 10 200
4759 -1.2054431678896989 1.0864294969328636 2.4773783791559905 31 21 19 0.44477661226813764 27 86 25 105 23 81 14 79 11 67 9 59 5 65
4757 -0.78821014899951336 1.0690088281550696 2.2076437835070837 85 77 72 0.52804919131953709 26 97 25 100 23 187 19 80 20 77 16 80 14 82 10 68 9 61 7 60 3 64
4756 -0.22194761230735233 1.0987107793247415 2.0764797674174531 2 4 1 0.31466911509376855 29 61 25 98 22 83 18 185
4755 0.97315410440288719 1.1627997054461274 2.3282346551778748 103 107 108 0.6407552636207744 27 57 25 85
4754 0.52882271573482298 0.99624736961279758 2.502481364195706 62 54 52 0.41573266701524564 27 37 25 48 24 199 23 47 22 52 19 56 20 50 21 58 16 168 15 43 18 53 14 158 13 53 11 46 12 239 10 164 8 39 7 134
4751 0.31769164729686661 1.0745281324310971 2.1950371096705488 9 11 9 0.54243476775560662 28 196 27 58 26 218 33 58 31 51 30 177 29 170 25 207 24 83 23 177 22 269 14 175 13 259 11 171 10 67 9 169 8 233 6 173 7 153 3 220 4 164 1 152 5 153
4750 -0.46857259182161071 1.0398424284942751 1.7813713037425918 0 1 1 1.2792416359656029 27 566 26 575 25 570 24 564 23 528 22 537 19 518 20 554 21 528 16 519 15 510 17 482 18 497 14 529 13 501 11 499 12 492 10 503 9 483 25 577 8 476 6 485 7 458 1 472
4749 -0.67124249250627355 0.98431886016870385 1.7584275123549291 0 1 1 0.67058441673005564 27 565 26 574 25 569 10 486 11 482 12 477 9 470 8 465 6 469 7 443 3 446 4 472 5 424 2 452
4748 -0.65403659406029369 0.9856731908789047 1.857517907076653 0 1 1 1.9846197030048873 25 568 24 544 23 508 22 501 19 490 20 527 21 497 16 489 15 474 17 450 18 469 14 512 13 480 11 481 26 573 12 476 10 485 9 469 8 464 6 468 7 444 3 445 4 471 5 423 27 564 2 451
4747 -0.51314674007596206 1.3496516280493267 1.8512084492765879 64 57 53 1.2456166156325439 27 559 26 566 25 574 24 562 23 527 22 536 19 515 20 552 21 526 16 516 15 507 17 480 18 494 14 526 13 498 11 497 12 489 10 492 9 461 6 447 6 481 7 455 3 418 1 456 4 448 5 403 2 429 2 464
4746 0.49865374069382262 1.1809177234729242 2.05080541590501 0 5 3 0.28776914366647088 27 552 26 560 25 560 24 546 23 510 22 518 19 506 20 541 21 515 16 506 15 494 17 467 18 482 14 516 13 485 11 486 12 480 10 488 9 471 8 466 6 472 7 446 3 448 4 474 1 463 5 426 2 454
4745 -0.86861193433633532 1.4463065013575171 1.9432287057282098 1 6 2 0.83601365007962591 28 535 33 584 26 554 25 556 24 540 23 505 22 511 19 499 20 518 21 492 16 498 15 486 17 460 18 475 14 506 13 477 11 478 12 471 10 480 9 464 8 446 6 449 7 426 3 422 3 438 4 451 2 432
4744 0.53842536594838819 1.4436128582825056 2.1684829682668991 0 1 0 0.58351922750407981 27 541 26 551 25 565 24 550 23 515 22 525 19 507 20 543 21 517 16 508 15 496 17 468 18 485 14 518 13 488 11 489 12 482 6 476 7 452 2 459
4743 -0.023572854837473019 0.80747917875506625 2.2848041804068013 78 67 63 0.42565810500014645 27 529 26 544 25 542 10 466 12 460 13 460 8 448 7 429 4 453
4741 -0.51715334465148854 0.49420991748241655 3.142979584189213 0 1 1 0.56715663213704737 28 432 26 506 22 463 20 481 16 389 13 416 11 420 12 406 10 363 1 343
4739 -0.76918938383403368 1.1103803146195776 2.2171747912084911 11 9 8 1.4027095181509817 27 467 26 487 25 426 11 345 13 330 10 342 9 323 9 325 8 321
4738 0.26385895034072621 1.0055757110678136 2.3984249599138834 3 6 1 0.55169128884305596 28 369 26 469 25 478 24 443 23 418 22 416 19 403 20 446 21 413 16 406 15 391 17 367 18 381 14 400 13 384 11 388 12 368 10 388 9 367 8 364 6 312 7 296 3 296 4 317 1 294 5 285 2 294
4737 0.62386217164135649 1.0080152212208278 2.4605388768920124 66 61 57 0.30654597596978017 27 449 26 467 25 513 24 494 23 457 22 473 19 464 20 496 21 471 16 454 15 445 17 415 18 441 14 458 13 434 11 439 12 429 10 438 9 422 8 415 6 426 7 401 4 426 1 418 5 386 2 405
4736 -0.81940577124427849 0.81724970779344819 2.4776100151581679 239 232 240 0.63520701471897967 27 500 26 466 20 438 16 442 15 433 14 443 13 425 11 430 12 361 9 413 7 394
4735 -0.13541107750802381 0.7554023498561877 2.3624874637642579 34 35 31 0.62528438069413295 27 442 26 461 25 473 24 435 23 407 22 408 19 447 20 428 21 461 16 439 15 429 17 405 18 430 14 441 13 422 11 425 12 413 10 426 9 409 8 401 6 366 7 391 3 344 4 366 1 359 5 336 2 342
4734 -0.46879105169042357 0.70585222813384374 2.3915966801683508 93 83 82 0.4675192915920317 27 440 26 460 25 389 9 298 8 298 6 295 7 284 3 341 4 365 1 357 5 334 2 340
4733 -0.14463611210089566 0.62778949697283482 2.9937863747840456 24 20 16 0.31138646810836723 27 437 26 457 24 430 23 402 20 423 16 394 15 381 17 356 18 369 14 388 13 369 11 374 12 355 10 369 9 353 8 347 6 361 7 335 3 279 4 361 1 351 2 336
4730 -0.75392887376921303 1.0374922689742756 1.3553035558387121 6 11 4 0.9311283711645969 27 471 26 426 25 434 9 266 8 251 7 312 1 317
4729 -0.96532012347281837 1.086916098241917 2.2327242175395345 93 84 79 0.3724359818271985 27 402 26 418 25 425 24 383 23 288 22 276 19 254 20 275 21 363 16 264 15 241 17 240 18 253 14 261 13 264 11 338 12 250 10 340 9 254 8 240 6 261 7 235 3 228 4 253 1 303 5 217
4725 -0.36424603179432036 0.96759862884300929 1.9681727999349161 109 95 92 0.16943820394748002 27 380 26 399 20 356 16 340 14 343 10 331 7 298
4724 0.43320940564094124 1.0356585864262453 2.3659753771445824 4 2 0 0.46226195313161705 30 390 26 397 25 403 24 370 23 266 22 265 20 268 21 188
4722 -0.097393047275275854 0.87648819710333559 2.1626483192009722 3 8 2 0.63621747373098003 27 448 26 392 25 476 24 360 23 414 15 323 13 320 12 314 9 306 8 301 7 292 3 290 5 278 2 285
4718 0.31886061231477092 1.5724190011129948 2.1884600253916928 18 20 17 0.21743009380047615 27 342 26 364 25 367
4717 0.16564878396932581 1.511792169044426 2.1873102794163475 1 2 0 0.35738348271125037 27 252 26 359 25 361 24 408 23 319 23 385
4716 -0.38222731053301573 1.339614079173076 1.9861360023922576 1 5 0 0.25983802307991533 27 331 26 352 25 356 24 333 23 314 22 312 19 284 20 218 16 296 15 281 17 270
4715 -0.47977398224374029 1.3186601237294122 1.9684750522593233 23 19 15 0.26066805843949836 27 330 26 350 25 354 32 374 24 330 23 312 22 310 19 282 20 309 21 315 16 292 15 275 17 268 18 282 14 297 13 282 11 288 12 278 10 286 9 279 8 276 6 285 7 261 3 257 4 282 1 262 5 246 2 257
4714 -0.97064751302805641 1.2274244618371462 1.8781278831999197 26 22 21 0.45021040457325445 27 333 26 349 25 257 24 325 19 278 21 309 15 266 18 277 14 207 9 208 8 272 6 205 7 258 3 251 4 193 1 184 5 88 2 181
4713 -0.80445936357068204 1.0508736019051559 1.1102466756191847 44 45 38 0.59908982146827794 27 414 26 345 25 344 24 317
4712 -0.28126340550892193 1.2163362362451648 1.9522754273402292 4 9 5 0.90889890270528118 27 321 26 336 24 312 22 376 20 389
4709 0.28926751555818431 1.0976202073894739 2.1904139123587218 84 74 75 0.35412168575287489 28 294 26 318 25 412 24 374 23 358 22 358 19 333 20 366 21 359 16 348 15 343 17 318 18 328 14 350 13 325 11 335 12 323 9 316 8 314 6 321 3 224 4 248 5 210 2 229
4708 0.28848864119969275 1.0970895974811727 2.1871405513845108 84 74 75 0.34937689123004606 28 293 26 317 25 411 24 375 23 357 22 357 19 332 20 365 21 358 16 347 15 342 17 317 18 327 14 351 13 326 11 334 12 322 9 317 8 315 6 322 3 223 4 247 1 234 1 305 5 211 2 228
4707 -0.47928565787203187 0.83203872889458663 2.1621147832231822 75 72 70 0.29091827697635259 27 286 26 304 25 305 24 280 23 254 22 253 19 238 20 253 21 271 17 225 18 147
4706 0.76177372851871195 0.99368494396490403 2.6701442241567959 40 37 32 0.90459083559776554 27 281 26 302 25 306
4705 -0.0034250591557965712 0.7256452735563037 2.5252554075394138 17 13 12 0.27867280979669956 27 270 26 284 25 284 24 275 23 239 22 246 20 246 21 264 15 217 12 225
4704 0.05375946344140009 0.70444975744310279 2.4822294276931194 13 10 5 0.68112866007211426 27 265 26 280 23 237 25 173 22 12 24 13 16 13 15 11 17 125
4700 -1.0052101333179553 1.1085409350887996 2.0345581496161653 40 26 23 0.31205395627353327 28 320 26 251 25 241 23 93 24 107 19 92 16 95 18 80 13 93 11 83 9 69 8 69 6 88 7 68 5 71 2 76 1 77
4699 -0.31746472285043281 1.0975437981392584 2.0221446433718357 1 1 1 0.48529975022042904 27 210 26 231 25 103 22 84 19 187 21 104 17 80 18 187 14 188 10 75 8 180
4698 0.20966886092091691 1.0826269219215543 2.1399029639342189 73 63 62 0.3299982153477089 27 194 26 220 25 211 24 214 23 181 22 195 19 178 20 185 21 97 16 184 15 172 17 161 18 182 14 256 13 178 11 177 12 245 10 253 6 255 3 304 4 325 2 225 2 297
4697 -0.3940785231086204 0.98827412499390443 1.9603405506227685 14 12 9 0.44098114191539722 27 197 29 187 26 219 25 208 24 208 23 69 22 70 24 81 20 172 15 163 17 153 21 85 18 169 14 166 13 166 11 62 12 164 10 64 9 161 8 168 6 67 7 145 3 157 4 60 1 146 5 62
4695 -0.067873888742489313 0.86192655450171607 2.1707343644744781 10 11 6 0.47854794240377191 27 164 26 202 25 199 24 39 23 156 22 40 19 36 20 32 21 38 17 40 18 35 14 34
4694 0.12248979785754933 0.88386070238319225 2.306010460648682 62 58 54 0.31261501657724539 27 161 26 198 25 197 11 134 12 35 18 38 10 154 9 147 8 145 6 240 7 214 3 141 4 229 5 198 2 215
4693 -0.8395943258855183 1.3438599025195868 1.9246517202920876 95 90 90 0.21122954118119666 27 125 26 149 25 159 23 120 22 136 19 122 20 119 21 136 15 100 18 109 11 103 12 107 9 90 8 101
4692 -1.3214145944050337 1.2976311672707916 2.097403553834162 3 6 7 0.047612773791914656 27 256 26 146
4691 0.084398877849847273 1.2687358999483138 2.0333247436332558 42 33 28 0.25693366933423756 27 102 26 123 25 138 23 107 22 118 19 114 20 111 21 130 17 107
4690 -1.2002354293632802 1.1167085334031215 2.3054381606938379 17 18 12 0.19576603850039603 28 233 26 112 25 116 24 100
4689 -1.0057341792148529 1.1091320421541979 2.1588057327649395 87 83 79 0.79438768584683672 28 89 26 105 25 114
4688 -0.86590044793420673 1.1082283180174761 2.1472597609263104 25 19 19 0.3046284111627599 27 92 29 224 26 102
4687 -0.42984489326388192 0.99799979933398708 1.9135798959561103 50 51 46 0.26763904001994471 27 68 26 80 25 213 24 212 23 178 22 267 19 250 20 269 21 284 16 179 15 166 17 236 18 246 14 169 13 171 11 167 12 168 10 178 9 165 8 59 6 70 7 56 3 60 4 63 1 149 5 64 2 67
4686 -0.92300284504473262 1.0180934026860224 2.4861418829950801 14 15 10 0.24224272474196371 27 70 26 79 25 90
4684 -0.35123547938924515 0.92826726374301871 2.0105390316574705 8 9 3 0.27088675390038669 27 49 26 53 25 66 24 66 23 54 19 155 20 51 21 179 16 55 15 42 17 52 18 51 14 51 13 50 11 147 12 48 10 163 8 153 6 164
4683 0.21118795341890556 1.0160036631522891 2.3984098709467156 44 47 40 0.32090360584108574 27 45 26 48 25 63 24 69 22 58 19 66 20 64 21 72 16 64 15 158 17 62 18 61 14 66 13 63 11 157 12 65 10 172 8 160 6 56 7 141 4 155 1 138 2 147
4682 0.59775622786083904 1.0343059176128051 2.4468453358103406 18 17 14 0.29373490869516794 27 175 26 45 25 58 24 65 23 55 22 59
4681 0.56977674008683321 0.98339084910451779 2.5892605794419237 8 6 7 0.23444638094906545 27 167 26 36 25 42 19 52 20 48 15 41
4680 0.62267374949456722 0.97702078300328843 2.6162570186065546 40 40 39 0.47175878421210737 27 30 26 27 25 36 24 44 23 34 22 47 20 39 21 176 16 51 15 37 17 48 14 43 13 43 11 140 12 42 6 158 3 148 4 144 1 132 5 33 2 31
4679 -0.024908694917280302 0.82453004796109608 2.2729331833589264 37 26 22 0.64692349687267436 27 22 26 20 25 22 19 27 17 31 18 27 23 21 13 25 11 23 12 26 6 15
4678 0.31266634633327001 1.5721406204500534 2.1769817390386899 19 20 17 0.55124974064969368 28 338 27 341 26 363 25 366 19 378 21 333 14 324
4677 -1.0034182065238346 1.1436513952576464 1.9041265205934232 96 83 82 1.5210988701025965 32 609 31 584 29 560 27 537 38 551 37 553 36 533 35 506 37 526 34 513 33 554 32 568
4676 -0.27523516874712545 0.98070761300694043 1.9719170824193979 91 77 76 0.33044389880249114 34 185 32 331 28 292 27 193 33 223 30 63 29 181 26 61 25 206 24 206 23 171 22 191 19 67 20 171 21 82 15 160 17 67 18 166 14 249 13 163 11 161 12 163 10 174 9 159 8 164 6 169 7 144 4 241 1 144 5 144
4672 -1.1541850421504227 1.1408051762831941 2.1134759432648353 20 19 17 1.1984267094031373 28 551 27 568 25 572 24 559 23 511 22 519 19 505 20 540 21 514 16 505 17 466 18 481 14 515 13 493 11 485 10 487 6 471 7 445 3 447 4 473 1 462 5 425 2 453
4671 -0.28399462042261187 1.0655140816042854 2.009149212619596 3 6 2 0.6012693298691153 28 522 27 534 26 527 25 524 24 504 23 466 16 464 15 455 17 427 14 494 13 444 13 462 11 447 12 439 10 445 9 429 8 420 6 453 7 431 3 426 4 460 1 448 5 411 2 444
4670 0.42662377282475633 1.0508274327055875 2.2679870339974166 6 6 4 0.77976650343915554 29 544 27 531 25 544 24 526 23 489 22 500 19 492 20 529 21 477 16 457 15 450 15 475 17 451 18 442 14 460 13 439 11 469 12 433 10 442 9 452 8 417 3 424 5 408
4667 -1.0759903781484312 1.1014002048128579 2.2518430389400725 90 82 82 0.45998696325370492 29 529 27 516 26 530 25 547 24 505 23 468 22 480 19 471 20 500 21 480 16 413 15 456 17 426 18 446 14 465 13 445 11 450 12 441 10 446 9 431 8 423 6 433 7 409 3 407 4 437 1 430 5 392 2 414
4663 -0.00088135268188851978 0.89418218825131979 2.2399266428487756 7 9 4 0.46374331506466943 28 489 27 502 26 515 24 525 23 488 22 497 19 487 20 523 21 495 16 487 17 445 18 465 14 449 13 429 11 434 12 420 10 431 9 417 14 493 8 406 6 419 7 395 3 396 11 467 4 421 5 340 2 399
4662 -0.00243628687018628 0.89180845833405664 2.2341478203045977 7 9 4 0.38905202723498211 28 490 27 501 26 516 11 435 13 430 14 450 12 421 10 430 9 416 8 407 6 420 7 396 3 397 4 422 5 341 2 400
4661 -1.2045124968018903 1.19276673194519 1.9167151125741397 95 90 88 0.51547496294241868 28 477 27 483 26 496 25 444 24 401 23 303 22 299 20 294 21 308 16 280 15 261 17 260 14 285 13 345 11 356 12 341 10 349 9 334 8 331 6 340 7 318 3 317 4 342 1 320 5 306 2 314
4660 -0.96060059026639955 1.1845547072574161 1.8824862942918834 26 18 16 0.84594940585560541 31 514 27 478 26 538 25 535 24 472 16 427 17 387
4658 -0.55069284103855665 0.93140702374508733 1.9538833264205366 18 19 12 0.48652454269260242 30 536 27 452 26 398
4657 0.32961794129100702 1.0678856886814285 2.3335612312571143 5 5 5 0.43673630511423844 29 471 27 450 19 411 20 452 21 355 16 411 15 395 17 372 18 388 14 408 13 388 11 393 12 376 10 399 9 372 8 372 7 355 4 324 1 299 5 288 2 361
4656 0.82057414089210556 0.91875437419859651 2.4750694942100644 211 203 214 0.62553068950466428 28 488 27 445 26 389
4655 0.65132602725260436 0.80422329614973265 2.336057630956399 224 214 222 0.61426634855701523 28 440 27 439 25 290
4654 -1.1177695264758984 1.4501000765016361 2.0098121472626334 4 6 3 0.53791960976629005 28 429 27 432 25 463
4653 -0.42159232708032623 1.5072364143703652 2.1466276654109571 0 1 0 0.32179438677132033 28 480 27 427 26 503 25 503 24 482 23 453 22 462 19 374 20 410 21 393 16 435 15 422 17 397 18 424 14 433 13 415 11 367 12 405 10 360 8 394 6 407 7 329 1 402
4652 0.080392963002591702 1.5904334377547846 2.1666479658286333 19 20 15 0.58928193814047125 28 418 27 426 25 457 23 329
4651 -0.53781182334682087 1.4443205168048956 2.0517286199896221 40 40 36 0.63237364312101529 28 419 27 424 26 441 10 355
4650 -0.12805614732646856 1.5305653674398538 2.1824032594662275 0 1 0 0.52552217172139548 28 417 27 423 26 442 25 456 24 419 23 391 22 398 19 298 16 382 17 281 14 435 13 362 12 351 9 401
4649 0.307288549397431 1.5277060005109528 2.1998679985728566 1 1 0 0.41971579482397031 28 336 27 419 25 449 24 409 23 452 22 461 19 446 20 480 21 455
4648 -0.29454667502339882 1.1819997721496278 1.9708040292072204 75 71 67 0.13613149860449605 28 316 27 405 21 372 18 338 11 352 10 347 9 329 8 326 6 335 4 338
4647 -0.67432859337659545 1.0157357164516132 1.5707609423741271 0 2 0 1.1236080848705896 28 461 27 397 26 416 25 423 9 257 10 188 8 242 6 326 7 308 3 236 4 258 1 308 5 294 2 303
4645 0.81967214281165424 1.176882454621786 2.1555234588034753 200 204 210 0.28848434426648201 28 378 27 386 25 414
4644 -0.57859661885873159 0.87140278073812172 2.1871878977280206 15 14 9 0.38739385909792229 28 368 27 377 26 307
4643 -0.25983781352845253 0.70703387107124804 2.2202296593128419 73 71 72 0.24010355203507067 28 358 27 370 26 380 25 285
4642 0.95460629018496845 0.84688959311499878 3.0752272690534057 208 202 210 0.082363094551448079 31 145 27 368
4640 -0.94483889943689348 1.5022849335855295 2.0196512459624909 24 26 21 0.713413610573015 29 451 27 363 25 465 24 346 22 326 19 300 21 334 16 310 15 302 14 321 13 303 11 306 10 309 8 209
4639 -0.28957890961257804 1.4876125832080491 2.1062802677418255 0 2 0 0.40543837449224163 28 341 27 347 26 365 25 368 11 303 13 298 14 315 9 347 14 382
4636 0.24105355983813964 1.5095890399546381 2.1904375119387169 2 2 2 0.25364484278444077 28 335 27 337 26 356 25 360 24 340 23 227 22 231 19 296 20 234 21 243 16 229 15 295 17 280 18 299 14 219 13 296 11 300 12 289 10 303 9 286 8 286 3 327 8 340
4635 -0.38373177137472569 1.3394688817246525 1.9866297423905706 1 1 0 0.20039453783688085 32 371 27 332 26 353 21 319 16 295 17 271 18 285 10 291
4630 0.80766246832407596 0.95500264131100621 2.4158644864670302 3 2 2 0.55339540434138312 28 363 27 279 26 196
4629 -0.50883137763200426 0.78950887725047703 2.2105122283683438 78 74 71 0.28329766754341501 28 280 27 276 26 294 25 299 24 31 23 20 22 28 19 24 20 19 21 27 16 151 15 134 17 24 18 22 14 137 13 237 11 233 12 228 10 236 9 132 9 229 8 217 6 235 7 209 3 209 4 219 1 118 5 193 2 208
4628 -0.88181732728984563 0.65203580725913313 2.1205666880989305 2 3 2 0.63367475007781748 28 147 27 272
4627 -0.38649257184148733 0.6678655024395026 2.1875672730774127 30 27 22 0.039737776715519903 28 270 27 269
4625 0.63402276684802128 1.5906225592269529 2.2948778127499563 63 64 63 1.8873775728734496 28 247 32 365 27 248
4620 -0.33079252590642616 1.1163958882955416 2.0040799223852188 61 60 55 0.28980074659233468 29 207 27 218 26 239 25 224 24 98 23 194 22 91 19 93 20 93 21 108 16 97 15 78 17 87 18 81 14 96 13 89 11 190 12 88 10 80 9 184 8 67 6 83 4 181 1 165 5 161 2 164
4619 -0.33092135583728155 1.1168995504384773 2.0077100144129649 61 60 55 0.24565494631408955 29 208 27 217 26 240 25 225 24 99 23 195 22 92 16 98 15 79 17 88 14 97 13 90 11 191 12 89 9 185 8 68 6 84 4 182 1 166
4618 0.78544693295420331 1.2436904983152224 2.1448666260935454 154 160 164 0.75878286821052299 28 211 27 208 24 233 18 271 11 273 13 195 12 263 10 94 5 170 1 250 3 181
4617 0.78508682493244741 1.2435567748528047 2.1437320855177759 154 160 164 0.64644692196467302 28 210 27 207 26 233 25 329 24 232 18 272 11 274 13 196 12 262 10 95 9 75 6 193 3 180 1 251 5 171
4616 0.96851829584745353 1.1042148047691858 2.3270925316786681 38 39 40 1.3269512121598517 28 177 29 164 27 181 24 207 23 172 20 75 16 76 17 156 18 68 14 78 11 173 12 77 9 168 7 154 1 72
4615 -0.39267992640286536 0.85745839454560213 2.1802915558438447 36 41 32 0.1378667995399894 28 166 27 170 25 39
4614 -0.44328997972217721 0.8386075788383035 2.1311180928582369 12 7 4 0.41828047022939507 28 40 27 169 26 204 25 31 24 41 23 29 22 39 19 34 21 170 16 36 15 26 17 38 18 31 13 28 11 33 10 30 9 16 8 20 6 17 7 22 3 20 4 140 1 126 5 19 2 133
4612 0.053713433845710534 0.87224407641637602 2.2315531621024958 67 61 63 0.1673432629247224 28 155 27 160 26 197 25 196 9 146 8 144 7 126 3 140 4 228 5 128
4611 -0.38196249528652293 0.71349251131676417 2.0521646075521187 63 56 53 0.26325520641825778 28 149 27 156 26 187 25 291 9 127 8 131 6 136 7 112 4 120 5 9 2 11
4610 0.11054551101241857 0.72893227948227679 2.557538800440466 77 64 63 0.19795307940279067 28 140 27 145 26 183 24 175 23 138 22 164 19 231 20 140 21 265 16 144 15 127 17 217 18 226 14 236 13 142 11 122 12 130 10 137 9 224 8 128 6 132 7 205 3 122 4 217 1 205 5 116 2 122
4609 0.032796917989712474 0.7170958716563266 2.5285760829214046 92 77 82 0.22847709441786579 28 139 27 143 26 179 25 174 24 173 23 137 22 13 19 16 20 138 21 11 16 142 15 125 17 126 18 130 14 131 13 140 11 120 12 128 10 135 9 121 8 127 6 131 7 203 5 115
4607 -0.52164844989025239 0.54504873518458485 3.1305466131159472 20 15 21 0.24027941508338152 28 133 27 136 26 167 25 280
4606 -0.11977129720199214 0.53701465052848329 2.557540489718761 1 1 2 0.53714753218527889 33 171 27 134 24 159
4605 -0.93542653639704665 1.3808939369153133 1.9200293038785885 98 90 87 0.26227389544664459 28 123 27 131 26 156
4604 -0.71378657558419056 1.4205160836602431 1.9703776526428354 41 40 39 0.17377150840488126 28 122 27 130 26 155 25 162 24 150 23 122 16 122 15 108 14 117 13 124 11 106 12 112 10 115 9 95 8 109 6 113 7 92 3 106 4 104 5 97 2 101
4603 -0.83937299061216741 1.3462679462407734 1.9281439167028351 80 77 77 0.26074008830397594 31 130 27 126 26 148 25 158 15 101 12 106 9 91 6 111 7 86 3 193 4 198 1 192 2 187
4602 -1.0229238024718708 1.1107054621884425 1.8566953833813455 85 77 75 1.292749760096491 29 104 27 113 22 292 19 265 20 199 21 215 17 254 13 273
4601 -0.95703037819214565 1.12109014884782 1.9904655881292646 17 18 15 0.13491328691995133 28 99 29 240 27 105 26 121 25 126 24 112 23 95 22 102
4600 -1.225626259847308 1.1198800071040991 2.3311529708293666 73 73 73 0.12677572472583071 28 92 27 101 26 111 25 115
4599 -0.7898989944927618 1.1185366849613814 2.0262358437026733 68 59 59 0.071646295324529291 29 91 27 94 26 110
4598 -0.30103443793257367 1.145306269423024 1.960472106427753 76 79 72 0.19219108148674746 29 76 27 88 25 112 20 99
4595 0.22974828195745056 1.0515788378393738 2.3418977539098873 65 64 59 0.20419163268519439 28 188 27 54 26 212 25 74 24 76 23 68 22 72 19 71 20 70 21 87 16 73 15 62 18 171 13 168 11 164 12 165 5 147 1 147
4593 -0.32320689611628028 0.92876446089974141 2.0220375485250672 79 72 66 0.20063883620280606 28 52 27 46 26 52 25 62 24 64 23 50 19 55 22 187 20 162 21 180 16 165 15 154 17 53 18 157 14 157 13 51 11 45 12 49 10 45 9 33 8 154 6 40 7 35 3 36 4 36 1 43 5 44 2 42
4590 0.68823094434360599 0.99298937234930262 2.5981454905111989 28 22 24 0.33744609216357113 28 30 27 31 26 34 25 43 24 49 23 38 22 181 19 154 20 159 21 276 16 164 15 152 17 144 18 154 14 155 13 155 11 144 6 35 3 35 1 40 5 40 2 38
4589 -0.2339230289579971 0.57537764633942412 3.0543806035131063 23 20 27 0.7393640339400761 28 1 29 3 27 4 22 2 20 1
4588 0.037376438915453267 0.58933005096840696 2.5266265289233103 47 44 47 0.23363031626253003 33 2 27 2 20 2
4587 0.060305878582097142 0.58789951527882489 2.4744627302487725 15 13 16 0.12103988891282604 29 0 27 1 25 3
4585 -1.0040493370705041 1.4447961151709867 1.9531247680958588 0 2 0 1.2457276557391075 33 522 32 533 31 524 30 556 28 534 29 563 32 593 27 560 26 568 25 566 24 552 23 517 22 526 19 508 20 537 21 519 16 509 15 498 17 470 18 486 14 519 13 489 11 490 12 470 10 494 9 476 8 460 6 477 7 436 3 453 4 480 1 457 5 432 2 460 90 540
4584 -1.0580373441460125 0.96748884292310555 2.593988970044133 10 10 6 0.65022262464943981 31 68 30 194 29 52 28 58 43 407 42 402 41 326 40 373 39 433 38 463 37 422 36 463 35 395 34 455 33 336 32 346 27 61
4583 -0.0085172941577454225 0.67058344511251555 2.7196841215362859 68 62 61 0.49060448569541848 31 144 30 6 28 7 34 144 33 9 27 137 26 175 25 169 24 167 23 131 19 136 22 154 20 245 21 153 16 136 15 122 17 122 18 124 14 128 13 138 11 118 12 123 10 131 9 112 8 121 6 229 7 106 3 115 4 214 5 110 2 117
4579 0.21456756555078182 1.4217219661641454 2.090422277695779 49 46 41 0.32866507366929731 29 559 28 529 27 542 25 551
4578 -0.65096139256524155 0.87234236299077028 2.2622310530055656 6 9 7 0.77718792276179416 29 545 28 518 24 492 23 456 22 468 19 454 20 488 21 465 16 446 15 436 17 408 18 434 14 446 13 427 11 431 12 418 10 428 9 415 6 417 4 420
4577 0.65440265709524603 0.84840785065895297 2.9052975694988681 231 223 233 0.81710779010200207 29 515 28 513 27 528
4575 -0.44470555137815243 0.63096753859798593 3.1074648894302124 3 5 3 0.69971589394221578 29 459 28 485 27 496
4572 -1.2654242776959266 1.105311785762914 2.4553982609332263 4 7 9 0.39252740069102254 29 499 28 467 27 403 26 419 25 430 24 381 23 361 22 362 19 331 20 367 21 361 16 346 15 340 17 315 18 325 14 349 13 327 11 336 12 324 10 335 9 319 8 316 6 320 3 302 4 327 1 301 5 289 2 296
4570 0.58782385905574919 0.90144331977866798 2.9281030156157022 11 7 6 0.66935969266547024 29 462 28 442 27 372
4569 -0.64957291305242548 1.4993206913224106 2.0946681169306931 0 2 0 0.31152832967176641 29 445 28 425 27 490
4568 -1.3292163352481281 1.1812623100179562 2.6862778147625641 0 1 0 1.0390819143097254 29 415 28 399 27 409
4566 0.31382414241419793 1.0912150844498953 2.0803562722992184 81 74 67 0.46738538779915145 33 475 28 376 27 456 26 476 25 482 24 451 23 425 22 427 20 458 21 424 16 416 15 399 17 373 18 391 13 390 11 394 12 378 10 403 9 375 8 375 6 383 7 357 3 365 4 382 1 376 5 354 2 366
4564 -0.60261831095121476 0.54540890830204247 3.049041966855071 219 216 223 1.0173771432326877 33 181 28 354 27 494 26 454 25 505 23 397 19 379 20 333 16 315
4560 -0.29414963073045886 1.1821240710205154 1.9726228548985538 73 71 67 0.16151644985616848 29 324 28 315 27 404 26 423 25 435 24 389 23 366 22 370 19 348 20 382 21 371 16 356 15 356 17 329 18 337 14 364 13 340 11 351 12 337 10 346 9 328 8 325 6 334 7 314 3 314 4 337 1 318 5 299 2 310
4558 -0.73748933924050475 1.4412524799555679 1.9748723444715279 1 1 0 0.44579114999576597 29 129 28 258 27 353 26 371 25 371 24 421 23 392 22 397 19 368 20 405 21 390 16 306 15 294 17 279 14 314 13 297 11 302 12 290 10 305 9 288 8 287 6 291 7 269 3 271 4 291 1 198 5 258 2 192
4556 0.34249467488859536 1.6089288076745187 2.2070163665320268 2 4 0 0.23204537795295738 31 245 28 252
4555 0.82716802216409313 1.5294193082247569 2.3322078344391008 0 0 0 0.19579757529967212 29 235 28 237
4554 -0.32338635128982302 1.1375912745545833 1.9798449363070894 7 6 2 0.6361838173344635 29 212 30 84 28 226 27 316 25 336 24 231 23 295 22 98 19 99 20 288 21 118 16 102 15 83 17 95 18 195 14 199 13 188 11 198 12 259 10 91 9 194 8 192 6 270 7 311 3 177 4 185 1 175 5 226 2 169
4553 -0.31997134548953893 1.1338054632574339 1.9804902135718678 7 6 2 0.32086619952133189 29 213 28 225 22 99 30 83 19 100 21 117 16 103 11 199 10 90 1 176
4552 -1.3601835085407352 1.0825630996010085 2.7370146930132226 17 24 30 0.34401019409884565 29 222 28 224 27 214
4551 -0.78691225179849378 1.067675041072587 2.1963900418078 94 82 77 0.49856856484018525 29 211 28 222 26 96 25 99 23 186 19 79 20 76 21 98 16 79 17 74 18 69 14 81 13 78 10 69 9 60 8 62 7 59 3 63 4 64 1 71
4550 -0.75259398168826341 1.0441375943449309 2.311568833332192 73 65 59 0.46681578781751293 29 199 28 214 26 226 24 85 22 76 19 72 20 73 15 63 17 71 18 173 14 77 13 172 11 64 12 74 10 66 9 56 8 58 6 71 7 146 3 59 1 68 5 63 2 221
4548 -1.1592485347919743 0.93197773493024061 2.6479759908884781 62 52 51 0.57146726215905941 32 437 28 199 27 297 26 208 25 313 24 202 23 161 22 183 19 41 21 175 15 146 17 139 18 152 14 149 11 139 12 148 9 150 8 150 6 157 7 130 3 144 1 28 2 26
4546 0.76539239876577547 1.0253431838119953 2.5297120994158813 194 194 197 0.2801130067356592 29 291 28 165
4545 0.76258364061065531 0.99641281587224939 2.6774519481908468 39 33 34 0.61993488207257275 30 26 28 154 27 280 26 301 25 307 24 364 23 345 22 352 19 323 21 277 16 334 15 231 18 238 14 340 13 321 11 327
4544 0.67302524808750464 0.940675122566213 2.7714712713471523 28 27 25 0.51174242987755758 31 279 28 151 25 24
4543 0.11289440738540472 0.7298513506951273 2.5660105467703462 76 70 70 0.17883047975151387 30 15 28 141 27 144 26 184 25 178 29 148 24 176 23 139 11 123 8 129
4542 -1.18464942464875 1.477963393599022 2.0243164394989486 4 7 6 0.70412213711575256 30 136 28 124 27 132 29 132 26 158 25 164
4540 -0.89534447916614801 1.1923619263955458 1.8809732865901987 28 23 23 0.13030890132178249 29 111 28 110 25 149 24 133 23 111 9 82 4 85 2 91
4538 -0.93290763165365564 1.1303959870528566 1.9514618563610968 54 52 55 0.30901183541570471 29 96 30 102 28 101 27 108 26 127 24 117 17 97
4537 0.0048192583180756421 1.2775778776757336 2.0231103852476715 40 31 31 0.20296156514686545 29 89 28 96 24 129 23 215 20 113 22 123 16 112 15 96
4536 -0.90005423544182517 1.1261263931973624 2.0319764975770589 9 8 8 0.5744508915475659 30 230 28 94 26 117 25 246 10 88 11 196 3 76
4535 0.18245860010293102 1.3061159484798777 2.0482845097275639 33 36 29 0.20487534695440643 29 86 28 93 27 106 26 129 25 144 24 134 23 115 22 127 19 207 21 231 16 114 15 196 17 193 18 206 14 210 13 211 11 213 12 198 10 212 9 210 8 198 7 184
4534 0.75133377241751287 1.2620053879677591 2.1242226762590364 14 18 20 0.47102244867461718 30 69 28 73 24 110 27 212 12 194 11 278 13 109 6 99 7 177 10 205 3 89 4 192 1 87
4533 -0.82699342219719574 1.0305075929976757 2.4344436670009149 14 8 7 0.39980654719459818 30 204 28 68 27 73 26 83
4532 -1.0559930712787826 0.97486944531911612 2.6192765031825913 22 16 13 0.13172718943575876 29 53 28 59 27 60
4531 0.15979875621610595 1.0813508468403459 2.2564484054424931 19 14 11 0.10002221473373894 30 59 28 56 26 66
4530 -0.32318009978047874 0.92760448481967672 2.0232990573035812 71 72 69 0.091476648266242272 30 51 28 51 27 47 26 51
4529 -1.0480048365913512 0.84756603661342955 2.7907682311954853 6 6 4 0.25374967131140208 31 182 32 62 28 43
4528 0.82939452532786317 0.99638685356974177 2.3038396311431146 47 44 44 0.8334689701799719 31 28 28 34 27 33 26 38 23 160 22 186 19 157 20 265 25 201 21 59 25 45 16 170 15 156 17 149 18 159 14 161 13 157 11 150 12 158 10 165 8 157 7 135 3 43 1 136 4 147 5 137 2 142
4527 -0.0097747834472675169 0.76123967305041584 2.4355337939601069 67 58 59 0.26756828459075832 29 7 28 13 27 154 26 186 25 184 24 20 23 147 21 158 22 171 16 146 15 130 17 218 18 137 11 20 12 134 10 140 9 8 8 133 6 10 7 114 3 128 4 123 1 116 5 11 2 123
4526 -0.63001803353713504 1.1438673443070071 1.9419044333090001 6 4 0 0.39749666581869725 31 229 30 226 29 332 36 255 35 326 34 332 33 350 28 321
4525 0.030842305991794855 1.2239558032260809 2.0081069483081531 70 59 56 0.084999675186227988 30 575 29 570 28 543 27 556
4524 1.0552592338483386 1.1041987038511889 2.3758648459957357 0 0 0 0.58209844716320114 29 565 27 549
4522 0.53886266809742567 1.4440807497223547 2.163920689937791 0 5 0 0.53127401351647052 32 557 29 558 27 540 24 551 23 516 22 524 20 544 21 518 16 507 15 497 17 469 18 484 14 517 13 487 11 488 12 481 10 493 9 475 8 470 7 451 3 452 4 479 1 468 5 431
4521 -0.46108251301573222 0.74542899218066005 2.1171763979888976 4 5 7 0.89072002968459141 30 532 29 543 28 516 27 498 26 514 25 511 12 414 9 408 8 400 6 411 7 390 3 392 4 414 1 409 5 378
4520 -0.81799673714541732 1.042300073419143 2.3236845415259606 10 10 8 1.0202498798513893 31 539 29 527 28 498 27 512 26 525 25 522 24 449 23 423 19 407 21 417 17 370 18 384 10 397 9 313 8 371 6 380 3 363 4 380 1 374 5 350 2 359
4519 0.47857647410276904 1.2127248834831477 2.0849063299174238 3 6 0 0.62201008732457674 33 413 29 483 24 507
4518 -0.588665630302872 0.59533461534703569 2.9336311157879931 22 17 21 1.7939385350800288 31 460 29 458 28 434 26 458 23 400 19 386 16 393 15 379 14 386 18 218 11 311 10 368
4517 -0.1923603856954938 1.5194375933460373 2.1810227965141356 0 1 0 0.52956651624988771 30 446 29 433 28 415 27 486 26 440 25 453 24 417 23 390 22 396 19 371 20 411 21 392 16 379 15 374 17 345 14 434 13 361 7 382
4516 -1.069570379893575 1.1672645102160764 1.8761803126823855 93 83 81 0.30697927256557733 31 426 29 426 28 404 26 433 25 441 24 399 23 373 22 374 19 349 20 384 21 376 16 358 15 358 17 331 18 339 14 280 15 259 13 277 11 275 12 264 10 275 9 269 8 258 6 275 7 251 3 243 4 269 1 252 5 231 2 245
4515 -0.90840907011339678 1.172906830820202 1.8932454078356489 88 74 76 0.20799356311225084 30 435 29 421 27 326 14 282 11 277 12 267 5 232 1 253 2 247
4514 -0.059621850753612773 1.3744344843021576 2.0146166678547561 18 14 11 0.5461670500312904 31 509 29 419 28 405 27 416 26 436 25 447 24 406 23 382 22 383 20 394 16 369 15 366 18 353 14 431 12 401 10 420 8 392 4 347 5 401
4513 -0.14695312796427618 1.3410449035820111 2.0259050637470795 9 11 6 0.37313691529918508 30 430 29 418 28 474 27 480 26 495 25 499 24 479 23 450 22 457 19 439 20 476 21 448 16 368 15 418 17 394 19 440 21 449 18 419 18 420 14 427 13 411 13 412 11 416 12 399 10 418 9 394 8 391 6 399 7 374 3 380 4 401 5 373 2 382
4509 0.078266312136739832 1.1311536499232699 2.0200013549724409 4 5 0 0.078333769645383342 30 404 29 398 27 391
4508 0.50504854531785548 0.97568054473993404 2.630484133414472 69 61 57 0.23982590433747875 31 378 29 380 28 365 26 393 24 441 23 415 22 413 19 460 20 493 21 469 14 397 13 378 11 385 12 364 10 383 9 362 8 359 6 372 7 345 3 355 4 371 1 367 5 344 2 351
4507 -0.51251346297432898 1.4863150548322093 2.066064459562754 0 1 0 0.24619937376522244 31 253 29 354
4506 -1.1360850172338131 1.0834835812553918 2.2782784073717792 83 84 79 0.2201954451115008 33 438 29 329 27 227 26 242 25 228 24 222 23 188 22 200 19 180 20 187 21 200 16 182 15 173 17 159 18 179 14 179 13 182 11 179 12 177 10 185 9 174 8 173 6 176 7 159 3 65 4 167 1 154 5 156 2 155
4504 -0.74196505022996895 0.77516285604452617 2.6054812958347582 22 16 23 1.0765756859679245 31 290 29 287 28 278 27 374 23 342 25 398 22 466 20 430 21 462 15 387 18 372 11 318 6 412 7 338
4503 -0.10225337074208848 0.81234250958304055 2.2389539063380002 10 6 5 0.45320801026265922 30 277 29 282 28 277 27 375 26 292 25 298 24 278 23 247 22 345 19 234 20 248 21 269 16 250 15 220 17 298 18 232 14 335 13 238 11 234 12 310 10 328 9 230 8 218 6 303 7 290 3 289 1 286 5 274
4502 0.21913334199089213 0.7704578456703145 2.6262168828587273 21 28 21 0.23039775659634376 31 152 29 273 28 273 27 271 25 287
4501 0.2273254821277807 0.7158601183281188 2.7248580611514353 10 9 4 0.19085880418064502 30 141 29 269 28 356
4500 0.49911088905179302 1.5627870880008485 2.212143974985342 2 6 4 0.34766420202702736 30 238 29 246 27 250 31 111 26 357 25 362 24 262 22 322 19 299 20 324 20 414 21 328 16 308 15 297 17 283 18 301 14 319 13 302 11 304 10 308 9 290 8 288 7 270 3 273 4 292 1 338 5 259
4498 -0.25066642849082238 1.1504425580926385 2.014530665230938 16 16 10 0.29378785909018645 31 81 29 215
4497 -0.26673982025595905 1.1497627811323026 1.9732663596526057 16 16 10 0.48819455919682508 30 307 31 82 29 214 27 317 26 422 25 338 25 432 22 291 19 269 20 289 21 302 16 274 15 255 17 256 18 267 14 274 13 274 11 270 12 260 10 270 9 268 8 253 6 272 7 246 4 266 5 227 2 243
4494 -0.83277873047651929 1.282212403000921 1.9090611268033819 23 20 16 0.35115441761535804 30 118 29 120 28 116 27 249 26 142 24 145 23 118 22 133 19 118 20 118 21 238 18 107 6 108 8 98 7 189 5 178
4493 -0.075512182486110413 1.5013260985253107 2.1251878256831644 3 5 0 0.37619497649875538 30 117 29 119 28 251 27 255 26 362 25 365
4492 -0.90872508653652384 1.1096121405268813 2.0501934672111579 72 71 67 0.21677850028954598 31 234 29 92 28 91 27 100 26 113 25 119 23 88 24 104 19 87 20 90 21 109 15 75 14 91 11 79 12 86 10 78 7 63 4 71 1 78 5 72
4490 -1.107934644801968 1.0258303663282122 2.5033527858497244 41 30 27 0.16173439104254481 30 82 31 215 29 69 28 71 27 75 26 88
4489 -0.14581986655114809 1.1328047292537449 2.0285589389458094 13 9 6 0.38947214839650429 30 75 29 65 28 77 25 107 24 97 22 93 16 101 15 185 17 92 14 100 11 195 10 199 9 191 8 190
4488 -0.59659365121620067 0.87073082720404105 2.1060791966780084 34 26 24 0.37340159642695758 31 48 29 36 28 48 27 42 25 203 24 51 23 36 21 42 15 34 11 35 12 36 6 26 4 25 1 128
4487 -0.85309636298878577 0.83065199105838927 2.722967898974515 7 7 7 1.4905984992617138 32 52 29 29 26 28
4484 0.066404896653689524 0.71730107526239717 2.5368873101643383 24 23 20 0.17996801465700218 30 13 29 6 28 136
4483 0.35772164918704402 0.68594064408510425 3.5095833701674048 45 43 48 2.0857262517781847 31 3 33 6 29 4
4482 0.79690419426501824 0.97224505652524984 2.4144113100959195 2 3 1 0.86034243365077234 32 411 31 464 30 473 34 483 33 467
4481 0.90083490212067463 0.95883141990541743 2.6252566628190355 176 176 178 1.9270334851117947 31 558 30 530 34 544 33 586 32 577 29 517
4480 -0.3923715385169716 0.76656264951429964 2.2610665939002379 0 3 1 1.723827331601357 32 486 31 470 30 531 41 422 40 474 39 502 38 528 37 540 35 480 36 494 33 533
4478 0.43602989888469046 1.2462587973062351 2.0885267437882149 47 45 38 2.0511704503025388 33 86 32 77 31 67 30 197 36 223 35 215 34 189 32 343 33 326 30 408 29 64 29 401 28 78 28 387 27 83 27 398 26 100 26 421 25 233 24 114 24 388 23 98 23 368 22 107 22 455 19 108 19 434 20 207 21 125 16 110 15 414 17 388 18 343 14 205 14 423 15 193 17 183 18 201 13 198 13 344 11 205 11 355 12 193 12 340 10 99 9 201 9 333 8 195 8 388 6 197 6 339 7 176 7 316 3 182 3 320 4 341 1 180 1 322 5 304 2 177 2 317 88 240 120 134
4477 -1.2037620465604226 1.1533730915360068 2.1720059261478926 21 20 15 0.46849059699160361 33 138 32 130 31 117 30 108 40 231 39 338 38 364 50 268 49 304 47 344 46 269 48 147 45 331 44 297 43 327 42 324 41 274 37 362 36 368 35 348 34 351 29 106
4476 -0.98083717326066377 1.1210118294312041 2.5718757165061619 24 25 20 1.1515810252781846 32 626 30 593
4475 -0.91360072493077171 1.3160712402295485 1.9065077052821275 75 74 70 0.47008860456833895 31 598 30 591 29 584 28 555 27 573 26 583 25 583 24 569 23 534 22 543 21 535 16 523 15 517 17 486 18 502 14 533 13 508 11 504 12 497 10 509 9 488 8 482 6 491 7 466 1 479 5 435
4474 0.62798786285361596 1.269243371337528 2.1608318501537367 8 12 6 0.90930551081357081 31 591 33 592 30 584 29 574 26 580 25 579 24 566 23 531 22 541 19 520 21 532 13 505 10 505 9 485 8 481 6 489 7 462 3 463 4 491 1 477 5 440
4473 -1.2083239794180365 1.3221893095112622 1.9085977718703937 14 16 13 1.0887621069871216 31 588 30 582 29 572
4470 -0.63489621248151507 1.5088310950194117 2.0829994166454751 0 2 0 0.36447975961111512 31 554 30 554 29 539 28 510
4467 0.42220746256515312 1.5378856689826974 2.1928964729048595 0 1 0 1.0614063730607348 31 549 30 546 28 532 27 545 26 553 25 553 24 538 23 504 22 510 19 500 20 536 21 509 16 499 15 487 17 461 18 476 14 507 13 478 12 472 10 481 9 463 8 459 6 462 7 435 4 467 1 458 5 420
4465 -0.30351729406499478 0.78020736622013653 2.1007749754313854 0 2 0 2.0044756684508487 31 534 30 533 29 518 28 517 27 530 26 546 22 493 24 522 19 484 20 487 19 395 21 463 16 440 16 485 15 472 17 406 17 444 18 462 12 458 10 464 9 449 8 403 10 427 6 413 7 392 4 415 1 410 5 379 3 393 2 397
4463 -0.53151311023529813 1.5811264053315708 2.0683505062800767 0 0 2 0.43683012526827358 31 523 30 521 29 509
4462 -0.71654294923762818 1.5205179299142468 2.0441016321911585 21 24 22 0.66736527799265999 31 451 30 520 28 484 26 448
4461 -0.78585081927864109 1.3466146875691287 1.9270864653130975 12 16 11 1.2931997364278895 31 436 30 517 29 436 28 479 27 485 26 502 25 502 24 481 23 451 19 442 20 478 21 452 16 432 15 420 17 439 18 421 18 456 14 432 13 413 11 417 12 403 10 421 9 341 9 398 8 441 6 403 6 445 7 422 3 417 4 405 1 331 5 400 10 475 2 427
4459 -0.96592302128728991 1.0898519495443091 2.2435535355684264 90 83 80 0.51401844658576989 31 540 30 497 29 490 28 394 27 401 26 417 25 424 24 382 23 287 22 277 19 253 20 274 21 362 16 263 15 240 17 239 18 254 14 260 13 263 11 337 12 249 10 339 9 253 8 239 6 260 7 234 3 227 4 252 1 302 5 216 2 227 2 299
4458 0.30581059278293254 0.63607724955713418 2.813776110840978 207 194 212 0.58822979645160356 31 266 30 461 29 541
4457 -0.58675400432142855 1.5177934327866429 2.0909017975092947 0 1 0 0.48494311081872277 31 446 30 454 29 446 28 426
4453 -1.3746929232852398 0.94392875600174964 2.7960568915882602 225 225 229 0.66028866048614765 31 405 30 406 15 327 14 339 11 324 3 214 4 311
4452 -0.096423221806936132 1.0837236701017741 2.1103941134942943 0 3 0 0.6158749615462058 31 400 30 403 29 396 28 380 27 390 26 407 25 415 22 426 19 336 20 457 21 423 16 412 15 341 17 316 18 326 14 409 11 340 12 377 10 336 9 320 8 317 6 325 4 328 1 304 5 290 2 363
4449 0.9933419889990257 0.97017422184095536 2.5431842575869479 211 206 213 0.095713509941407496 33 187 30 382
4448 0.9933419889990257 0.97017422184095536 2.5431842575869479 211 206 213 0.095713509941407496 33 186 30 381
4447 -0.11104542285881626 0.76503380685949118 2.3143741958584658 18 17 13 0.041880152519860041 31 278 30 380
4446 0.89081692630244147 0.94141572672044926 2.7310396993788166 3 2 2 0.5229600680908183 33 398 30 379 29 463
4445 -0.4460331497904419 0.68070010833556616 2.204540495986651 91 83 83 0.43924317541669816 31 369 30 378 29 277
4444 -0.91440374249254897 1.4564427906567943 1.9665875804505055 1 0 0 1.0621689698713743 31 261 30 359 28 350 29 131 24 423 25 376 23 327 22 400 19 373 20 322 21 329 17 346 18 362 13 300 12 291 10 306 9 289 1 337 5 319
4443 -0.87567611791172584 1.2520907605223184 1.8993382674685042 29 17 17 0.43606400299728454 33 140 30 346 29 251 27 335 24 327 23 309 22 225 17 190 18 105 10 105 8 91
4442 -1.3161439556883419 1.2237229128742209 2.3703347979136962 1 2 3 1.2045256468564467 31 352 30 342 29 341
4441 0.38847485633535872 1.6011184986372449 2.219561683035876 0 2 0 0.27091458440742389 31 347 32 370 30 339 28 413
4440 -1.2730004051095014 1.1676206901660851 2.339296080257534 11 10 10 0.61040499229353973 32 524 30 331
4438 -0.19715622695393181 1.1334958711550795 2.0256162494043242 7 9 3 0.29630310283994671 31 319 30 303 29 317 28 305 27 311 26 326 25 331 24 307 88 298
4437 -0.18564590746039775 1.1387906785499955 2.0418213132673011 7 9 3 0.1115503639838944 31 320 30 302 29 318
4435 -1.0482308368930666 0.92157875840803427 2.6866431102292507 18 18 16 0.24864464254913043 31 308 30 297 27 183
4434 -0.40218785707597215 0.95215891457451951 2.1600614110876126 46 41 37 0.47559406445001451 31 301 30 291
4433 -0.73060051725290098 0.90399150194483213 2.4742419715835955 1 4 1 0.31662011468047419 31 390 30 289 29 301
4432 0.32867924087973582 1.0818411393795921 2.2914506664685632 4 3 1 0.24016558688900458 31 297 30 287 27 191 26 215
