# 3D point list with one line of data per point:
#   POINT3D_ID, X, Y, Z, R, G, B, ERROR, TRACK[] as (IMAGE_ID, POINT2D_IDX)
# Number of points: 272, mean track length: 14.055403348554034
2353 -1.6956859195895471 0.77098205796820729 3.1959693803933846 0 1 0 1.104191089209015 92 372 91 378 90 348
2354 0.19095171593906565 1.3158216812741588 3.0856662415577714 166 146 144 0.41529303860879141 92 416 91 413 89 427 88 431 90 404 87 387 86 328 85 297
2355 0.18647362423294989 1.3267332130048783 3.121439132455873 166 146 144 0.31963149610395236 92 417 91 414 90 405
2356 -1.726893175337598 1.594160716945231 2.7867190367836185 1 2 1 0.54384938569774377 99 374 100 351 91 417 102 347
2357 -0.39879636641444938 0.55835244945809304 3.3920113516182959 63 50 43 0.34194874446844414 92 427 91 422 90 412
2358 -1.5001564374611895 1.0485496117490438 2.8582169980497274 33 31 33 0.2286655978274062 92 435 91 428 90 418 89 437
2359 -0.10351122058393405 0.99549303974722747 3.0031800587510311 5 9 5 1.1028298434518029 92 438 91 431
2360 -1.2204497037043174 0.84771388803414638 3.3228153119545332 12 14 11 0.28758100335611786 92 430 91 449 90 446
2361 0.32518965665110489 1.150677922686125 3.1801760029857244 27 27 25 0.2745226736347241 92 474 93 437 91 454 90 429
2362 -0.48571104027773371 1.8182976238840083 3.146136513357396 0 1 0 1.7667693002090374 97 476 98 462 91 463 101 451 103 459 106 474 108 440 109 462 89 480
2363 -0.073764827104676828 0.44354667906363648 3.8514285928609806 0 2 0 1.5438898766213243 92 470 91 464 90 444
2364 0.28156085217479188 1.5419279767681582 3.1830933996853994 39 34 31 0.2934494068417724 27 456 91 475 18 463 20 470 21 470 22 477 23 469 25 484 26 438 28 488 31 472 13 488 16 461
2365 -0.38601930002983598 1.2302505287014722 2.9823507278856822 190 164 165 0.48066332748404367 11 69 25 59 9 69 27 70 22 66 24 69 26 59 28 71 12 50 18 57 15 67 91 80 94 54 109 60 110 171 115 52 116 64 120 46
2366 0.16094164242546422 1.105636407799272 3.5697178565601879 138 110 112 0.48893039592495258 92 313 91 301 5 385 14 294 20 319 27 304 11 318 21 309 22 319 23 307 24 289 25 321 26 290 28 318 29 301 31 298 7 326 9 316 13 324 12 315 6 338 18 303 16 296 4 360 19 301 30 290 17 331 3 374 2 374 1 278 94 282 96 309 93 300 110 307 107 289 108 284 113 291 90 302
2367 -1.7755525417412832 0.84533432648265738 3.5124338219425852 89 81 82 0.4593683858446182 91 140 90 16 89 18
2369 0.13365446416055274 1.0806646222445786 3.5078448663508763 32 14 15 1.1427109817178807 92 57 90 52 89 72 88 65 87 184 85 129
2370 0.14383419123833113 1.1058267398883925 3.5165478640423156 170 145 143 0.40082515818836645 91 59 90 55 88 68 87 69 86 147 85 130
2371 -0.82227673308219718 1.2877618353892903 2.9655581997027003 190 159 164 0.23914957593415315 95 67 98 69 90 74 88 71
2372 -0.44729626832708302 1.3116286285680727 3.0018250850066859 174 152 155 0.47253187731761859 95 72 90 87 111 71 112 85
2373 -0.24976302893068611 0.47522167783663538 3.995890790813506 14 13 11 0.15683067148944524 91 131 90 129 89 216
2374 -1.7228068677299779 0.88937600818930973 3.3255928341780607 19 11 14 0.65619673640031984 91 146 90 138 89 136 86 7
2375 -1.708789327920073 0.8915797785089361 3.3047268547076971 19 11 14 0.36722730206357362 91 145 90 139 89 135
2376 0.55011004831730492 1.1615064842458946 3.6042440691770428 145 130 126 0.3828151961455214 91 71 90 165 89 168 88 275 86 277
2378 0.63750895798122231 1.2337706409935862 3.1407440074451749 30 27 30 0.1700746423548678 91 174 90 178 89 187 88 213 87 212
2379 0.10536315767092527 1.3099178872098809 3.0763029134219919 194 172 171 0.18164286588659784 91 175 90 181 89 185 88 209 87 207 86 160 85 63
2380 -2.0235653986301947 0.69665573125755009 3.501272123229799 18 16 14 0.58648161092848317 91 216 90 217 88 246
2381 -0.71644708038295357 1.6309394216702497 3.1411252061681805 19 17 14 0.23930097498342282 91 261 90 264 89 271
2382 -0.0010004448236232491 1.56273822066081 3.1363116732106899 146 128 126 0.35103142963103617 92 279 90 267 108 250 89 277
2383 0.2055704074179471 1.6391849019479159 3.2502404077956957 21 20 14 0.84374184085372406 91 268 90 272 89 281 88 294
2384 -1.281702082140576 2.2592758921682075 4.8369263565677914 72 66 53 0.20458586950710839 94 200 90 274
2385 0.49376474280885696 1.4120651355062244 3.1255247782289675 155 131 134 0.11829928012280262 91 328 90 319 88 358
2386 -0.31582746950624718 1.6361679750368969 3.2156890575982562 12 14 9 0.26869627555044134 91 336 90 329 89 343 88 359
2387 0.078824925351804645 1.1449524121913295 3.2099575160823726 16 17 12 0.35399154923303294 91 393 90 364 89 379 88 386 86 321 85 293
2388 0.21422801636076835 1.1864993688896377 3.0834779366184142 212 194 190 0.20731916347984439 91 402 90 398 89 421 88 427 87 417 86 324
2389 0.45257597391639703 1.223913010503461 3.0971604559575128 163 127 128 0.50405641891433095 91 411 90 402 89 425 88 429 87 445
2390 0.31579954200741511 1.6141973350728422 3.2637104253661122 37 24 28 1.4542465753951339 91 462 90 441 89 450 88 456 87 452 86 372 85 346 84 282
2391 -0.66454347909154921 0.76074326207432941 3.1944138092219632 20 17 16 0.13673231310418726 91 466 90 469 89 468 88 471
2392 -0.72455766983904757 0.94685406077750989 3.0227566329464106 34 26 28 0.30938137331052473 91 468 90 471 89 471
2393 0.79297639247198826 1.230710259869741 4.0224777522237538 160 166 170 1.3478704393576617 91 436 90 474 89 477
2394 0.046865930342664494 1.2218978097273607 3.0765683677588878 39 28 32 0.43712406159724265 91 471 90 475 89 475 88 476 87 458 86 410 85 378
2396 0.54884450909635585 1.2019147581074978 3.4623379331159008 161 136 131 1.6641709553852957 90 485 89 493
2397 0.17188281540898559 0.76831363861340074 3.7104423331437886 227 225 230 1.1618317498919941 13 407 4 391 14 373 18 389 21 389 26 333 27 346 15 401 17 416 3 400 35 280 90 381 94 356 96 391 93 388 102 363 99 383 104 366 101 348 106 425 97 382 103 374 105 384 95 348 108 367 110 426 113 361 112 374 111 390 115 335 116 371 119 327 120 317 122 341 121 323 123 337
2398 -0.9233159165710445 0.55009658000342931 3.6009219579288914 26 22 23 0.13698913052490994 124 2 125 4 127 0 129 4 132 6 138 9 137 5 133 2 143 7 141 3
2399 -1.3592712260831805 0.64540747541327781 3.7599674510347363 19 10 1 0.10639232338315029 127 1 128 5 129 7 130 7 132 9 138 11 137 10 133 5 134 3 135 4 139 7 136 13 131 13 140 8 143 10 144 3 141 4 142 4 145 5
2400 -1.3592712260831805 0.64540747541327781 3.7599674510347363 19 10 1 0.10639232338315029 127 2 128 6 129 8 130 8 132 10 138 10 137 9 133 4 134 2 135 3 139 6 136 12 131 14 140 7 143 9 144 4 141 5 142 5 145 6
2401 -1.5506300392959729 0.88947349530565067 3.4541640161549703 8 4 1 0.11881864225462616 126 33 128 19 129 21 130 27 138 114 137 35 133 23 135 23 139 27 131 23 140 31 144 27 141 24 142 20 145 28
2402 -0.85758641544838177 0.83379432714717461 3.0960086566515637 153 117 105 0.10285955624152246 126 31 129 23 130 30 132 32 138 32 137 37 133 26 139 29 136 32 140 33 143 25 144 30 141 26 142 22 145 31
2403 -0.85793734315001047 0.83367147542956233 3.0936875087307012 153 117 105 0.097503154218637408 126 30 129 24 130 29 132 33 138 33 137 38 133 25 134 19 139 30 136 31 143 26 144 29 141 27 142 23 145 30
2404 0.69054590371674129 1.3654010503570346 2.9415874305837257 208 210 210 0.53830463769080861 125 68 127 52 129 65
2405 -0.88656317611028457 0.59672777160636425 3.4013537550903656 95 74 76 0.30594345806683315 127 78 129 100 132 99 137 8 133 95 139 99 136 114 131 103 141 105
2406 -1.4207012690043637 0.68272930326733139 3.8656483278281675 36 27 26 0.37333757504567017 127 83 129 103 130 114 132 102 138 107 134 91 136 119 135 164 131 105 144 111
2407 0.048478600100009719 0.71806613393380136 3.4331233769393692 186 198 198 0.63778836529799643 125 16 129 105 138 110 130 15 133 15 131 16 143 94 141 13 142 12
2408 -1.8097652896840668 0.92912489474308479 3.1794028784748369 31 16 16 0.2591149022514746 128 104 129 111 130 121 138 38 140 113
2409 -1.7922332394515803 1.1978011381527733 2.7748332192901604 34 28 27 0.19518841812451138 127 119 128 122 129 125 130 138 132 176 138 194 137 189 133 167 134 178 135 186 139 178 136 193 131 180 140 185 143 165 144 187 141 178 142 186 145 172
2410 -1.8088074761382988 1.3258281051631589 2.8190619290501195 155 132 133 0.11285478584735147 125 65 126 79 127 45 128 127 129 131 130 70 132 128 138 138 137 142 133 126 134 132 135 50 139 133 136 152 131 133 140 141 143 125 144 140 141 138 142 140
2411 -0.74688001561547712 1.6343726260317246 3.1134617072445652 38 34 31 0.36620248512065834 126 161 128 75 129 144 130 98 132 88 133 137 134 142 136 98 140 87 144 96 141 86 142 148 145 137
2412 0.01866642562251606 1.7192813906341038 3.1610741858975615 56 57 52 0.011256768848548947 127 153 129 145
2414 0.56071226615328096 1.3061664722643143 3.1450979475046337 66 60 60 0.17674416922144731 127 198 129 181 130 204 132 187 138 203 137 198 133 176 134 187 135 194 139 189 136 203 131 189 140 194 143 172 144 195 141 188 142 193 145 178
2415 -1.3076496060135441 1.7001051390950668 3.0197670109626937 49 41 39 0.36643077385362882 113 264 125 233 129 207 130 164 137 232 131 213 140 275 143 208 144 225 141 212 142 224 145 145
2417 0.0011874334609598275 1.3263922695898505 3.0482164536077483 23 12 12 0.026233735135699786 125 268 129 237
2418 -0.87400739520813864 1.5763375666610606 2.9450699950344505 0 0 0 0.22136008044588351 97 373 128 270
2419 0.14386161319939794 1.7383903308196296 3.2807578738152046 0 1 0 0.20391750639014486 127 282 129 258 138 294 137 295 133 260 134 267 135 282 136 281 131 270 140 280 143 263 144 267 141 254 145 257
2420 -1.826954621546937 0.87311751049030861 3.4080477190617695 109 88 83 0.087834470430319708 125 292 126 312 127 290 128 286 129 273 130 314 132 289 138 307 137 310 133 274 134 280 135 294 139 300 136 299 131 282 140 292 143 275 144 282 141 265 142 299 145 269
2421 -1.3420444369755686 0.91762082299492298 3.5450919059402097 4 10 10 0.20266668373056826 126 314 129 276 137 313 133 278 139 304 136 302 131 285 143 278 144 285 141 269
2422 -0.10609756997084541 0.8437965132820715 3.224983604716821 91 87 83 0.3000096708555734 127 293 128 232 129 278 125 294 130 259 132 237 138 257 137 259 133 226 134 232 135 246 139 253 136 245 131 236 140 246 143 227 144 238 141 229 142 251 145 221
2423 -2.1530267940593877 0.779332149187559 3.5537064524332194 28 17 18 0.98756762153666888 124 357 125 325 129 307 131 310 145 297
2424 0.093955905563141512 1.2084036584300304 2.9440154757730581 0 2 1 0.15623737488335362 125 345 126 352 127 335 128 322 129 318 130 362 132 326 138 345 137 347 133 314 134 317 135 332 139 339 136 336 131 324 140 328 143 309 144 321 141 304 142 330 145 312
2425 0.5763444382990226 1.3700037212284566 3.1199787627607387 13 15 14 0.15482224101924158 126 364 127 351 128 337 129 330 130 371 132 340 138 357 137 359 133 327 134 329 135 344 139 351 136 349 131 337 140 340 143 322 144 334 142 342 145 324
2426 -0.24723860852887522 1.3747536816021646 3.0526049957989172 23 19 18 0.2055968183569799 125 404 126 408 127 387 128 376 129 372 132 381 138 400 137 405 133 369 134 374 135 388 139 393 136 393 131 376 140 390 143 368 144 379 141 356 142 389 145 363
2427 -1.7468199094833798 1.0315016908870904 2.7881822238390113 18 16 15 1.3526054711520459 128 392 129 373 125 413 126 422 130 418 132 385 132 395 138 402 138 410 137 408 137 419 133 373 133 385 134 378 135 391 139 405 131 379 131 390 140 403 143 382 144 393 141 368 142 402 145 375
2428 -1.3011757595931492 1.3966590471353089 2.8980093387058483 119 98 103 0.089353951172899709 128 387 129 381 130 426 132 393 137 417 133 382 134 386 135 399 139 403 136 405 131 388 140 400 143 379 144 390 141 366 142 400 145 372
2429 -1.0678607725554365 0.90393511259058068 3.304874817438201 46 42 38 0.25402309494201802 114 122 119 131 120 115 122 118 124 132 126 128 125 112 127 97 128 100 129 110 121 22 123 28 130 119 132 110 138 117 137 120 133 103 134 100 135 106 136 129 131 111 140 39 143 101 144 120 142 121 145 104
2430 -0.99595249476769232 0.86934551960073714 3.2336041222136287 8 5 4 0.56812175251928099 119 26 127 14 129 27 125 29 117 23 130 31 134 20 139 31 131 25
2431 -0.088677640959998499 0.96762775369034104 2.5847100617934347 74 71 58 0.39867911863469935 128 296 129 289 130 263 125 303 124 328 123 319 132 296 138 260 137 266 133 230 135 250 136 252 131 245 140 251 143 230 144 241 141 233 142 254 145 226
2432 -1.9531401151171366 1.269432960302681 3.4926152440522014 10 12 11 0.83575908766992768 128 298 129 313 130 356 125 308 126 322 127 301 132 320 138 337 133 306 131 318 140 321 141 298 142 324
2433 -1.0422955132584657 0.65185419975338565 3.5048075613465661 44 40 38 0.21017072500104064 123 9 130 11 132 13 138 14 137 13 133 6 135 5 144 5 141 6 145 8
2435 -1.4003585756167218 0.77588808476149029 3.7548419803677628 66 50 55 0.26767869458118687 128 12 130 14 132 18 138 20 137 18 133 14 134 7 135 8 139 12 136 20 131 15 140 12 143 17 144 11 141 12 142 13 145 16
2437 -1.0715211499902482 0.84632350527060474 3.3278567282989417 27 27 25 0.21971386118839278 126 127 128 15 137 30
2438 -1.0163241957406657 0.90157375565578279 3.2170999115082024 24 24 24 0.25126349869680059 126 37 130 35 138 37 133 29 135 29 131 29 144 36 145 34
2439 -0.11086135048776283 0.88097027912174852 3.0321814051705482 100 86 83 0.13909181927859238 126 131 128 105 130 36 132 39 138 40 137 42 133 30 135 111 139 112 131 30 140 40 143 27 144 37 141 31 142 28 145 35
2440 -0.10830840526778629 0.88197013400824442 3.0411189178743854 100 86 83 0.15082599046229209 126 132 128 106 130 37 132 40 138 41 133 31 134 105 135 110 139 111 136 34 131 31 140 41 143 28 144 38 141 32 142 29 145 36
2441 -0.93076112712175318 0.99936829769869528 3.2776894518054256 7 3 2 0.28876201552479924 126 44 127 23 128 26 130 44 132 117 138 47 137 49 139 39 131 38 140 46 143 107 144 44 141 38 145 40
2443 -0.80405412705635315 1.0544868967373517 3.0130654456761037 75 72 69 0.13012928203224863 125 45 126 47 128 30 130 47 134 26 136 44 144 48 145 43
2444 -0.80271013065804675 1.0558573462646086 3.0228635241538564 75 72 69 0.11747356136979654 125 46 126 48 128 31 130 48 136 45 144 49 145 44
2445 0.30631563397772721 1.3837819130198643 3.2870071920968993 25 25 17 0.17478283546861215 126 81 130 72 137 69
2446 -1.6763327743422249 1.4762069659379391 2.9209262581413311 23 16 23 0.29043130414216656 124 86 130 85 138 82 135 64 142 80
2447 -0.62862923023987527 0.44478706275197266 4.1483585945659209 89 70 72 0.12618675464731763 128 84 129 2 130 102 132 1 138 98 137 113 133 92 134 79 135 83 139 94 131 1 140 96 143 86 144 102 141 94 142 101 145 92
2449 0.83121493951266667 1.129037185918961 4.3893874796234984 200 211 210 0.2849828275455103 124 38 130 125 132 46 138 50 131 42 143 36 142 37
2450 -1.0439802519400001 1.024938094242505 3.2462042967171669 108 90 84 0.1708994428981267 127 105 128 113 130 127 132 119 138 51 133 39 134 111 135 117 139 41 136 137 131 118 140 120 143 40 144 128 141 39 145 116
2451 -1.0441587636361642 1.0244003364752339 3.2433102939349081 108 90 84 0.15655674162940658 127 106 128 114 130 128 132 120 138 52 133 38 134 112 135 118 139 42 136 136 131 119 140 121 143 39 144 129 142 39 145 115
2452 -2.0204141751151199 1.284975475926845 3.244940390661089 91 74 82 0.43384685416227625 127 116 128 39 130 137 132 52 138 129 133 116 134 121 135 122 131 124 140 55 141 131 142 136
2453 -1.6775365408740175 1.5243483306907246 2.9698151909277466 40 37 34 0.26112744858023468 128 139 130 155 132 143 138 151 137 89 134 63 131 83 143 131 141 73
2454 -2.1205817715921222 0.65160647962943519 3.461340557332631 125 95 102 0.20384112236470225 128 157 129 102 130 179 132 101 136 118
2455 0.19566824221400653 1.1350888021709469 3.1287450289934697 26 21 22 0.26740933543206147 128 119 129 173 130 195 132 175 138 191 137 186 133 164 134 176 135 184 139 176 136 190 131 177 140 183 143 163 144 185 141 174 142 184 145 171
2456 -0.84731951437177977 1.4249859350289482 2.929545314278021 29 25 26 0.21104074176323262 126 221 130 211
2458 -0.77946655821305288 2.6558049977814404 6.3579869636954811 64 61 54 0.36260806882409585 2 357 130 233 137 236 133 207 135 229 139 231 136 233 140 225
2459 0.45588974876368404 1.699644123265641 3.2868604849717658 0 1 0 0.280525832402512 125 282 130 293 138 288 137 290 135 277 140 273
2460 -0.47947138805292089 1.7271225968871784 3.1789845423476617 1 0 0 0.28574852477522966 127 278 128 273 129 255 130 294 132 277 140 277 143 260 141 214 142 284
2461 -0.72533113437453189 0.89225545218764513 2.9106712130613843 42 38 36 0.63305253771678627 123 308 130 321 124 281
2462 0.33389571648021033 1.0830809924239717 2.0345117917827125 0 1 0 1.853018729694502 128 333 130 334 132 330 131 328 136 339
2463 -0.10207528683831457 1.7149567618196697 3.2626106972376738 27 27 27 0.70751219245832098 126 334 128 308 130 343 127 360 132 350 138 367 137 329 134 302 135 312 139 321 136 279 141 289 142 317 145 291
2464 -1.4964391499178207 0.80935452016699605 3.5105351663386966 14 10 11 0.38473291717667912 128 314 130 347 127 314 132 314 138 330 137 336 133 296 134 308 135 320 139 326 136 325 131 312 143 300 144 309 141 295 145 299
2465 -1.7162623870215283 1.3242149148908782 2.8196647499895784 53 31 34 0.091932673330733947 128 327 130 367 132 335 138 352 137 354 133 321 134 325 135 339 139 346 136 344 140 335 143 316 144 329 141 311 142 337 145 319
2466 -1.8063155473442403 1.2708278174510068 2.8664987064093426 109 91 89 0.164924917127766 125 349 130 390 127 336 132 362 137 383 133 350 134 354 136 372 131 360 140 365 143 344 142 367
2467 -2.0052202821374006 0.93021916592132425 3.2657380211025275 54 39 34 0.94870744659496808 128 379 130 417 132 384 137 407 133 372 134 377 135 390 143 370 144 382 141 357
2468 0.26535021375925305 1.3899677048364012 3.1118846148676949 146 122 125 0.20388520070822733 5 254 10 261 9 267 6 272 4 236 3 260 2 257 37 259 32 229 38 172 39 169 130 207 114 231 115 235 116 268 118 241 117 240 120 224 121 209 122 229 125 202 138 205 137 200 135 198 139 192 140 196 141 190 145 181 40 146 41 136
2469 -0.66084586125167544 1.5222336171440434 3.0129192624711214 52 38 43 0.50446881957161316 9 274 3 263 2 266 130 214 32 237 96 263 100 236 102 273 104 249 101 252 106 268 97 255 103 246 98 247 107 251 108 247 110 276 92 275 118 253 122 239 123 230 124 232 126 226 127 210 128 199 90 259 138 217 133 191 134 201 135 213 139 208 140 210 143 185 141 199 145 192 89 268
2470 -0.92118360487166628 0.55115472072633465 3.6169007339084498 31 27 23 0.12758501933034744 125 5 132 7 124 3 137 6 133 3
2471 -1.0409465633044408 0.65397493915540983 3.5125447819171316 45 41 43 0.16931839686114461 123 8 124 12 132 14 133 7
2472 -0.44308579293898576 0.76674064625198846 3.1374640696851794 97 82 78 0.078004941175795997 124 23 132 24 138 24 137 27 133 20 139 20 136 26 144 17 141 19 142 16 145 23
2473 -0.11807486387928245 0.81748513760846908 3.2244586511364761 97 93 90 0.14817912183946996 126 24 132 28 134 14 135 18 139 21 144 23 141 20
2474 -0.11667046636632386 0.81800904051803014 3.2295981629427675 97 93 90 0.18275933927469667 126 25 132 29 139 22 144 24 141 21
2475 -1.9986390364009847 1.2767195779368594 3.6993138263831788 3 2 4 0.16484724780645885 128 34 129 122 132 50 138 59 137 55 133 46 134 118 135 37 136 50 131 123 140 50 143 50 141 43 142 45 145 45
2476 -1.6425530835795901 1.5680572266630759 2.9227212646208938 47 43 40 0.14590351093864687 116 105 132 80 115 90
2477 -0.60284646894658145 0.68793678055957341 3.310846358161041 35 15 23 0.14469440867883746 127 87 132 104 137 117 135 99 144 113 141 110
2478 -0.27834140783514394 1.8727943899162571 3.6293629028219487 32 31 29 0.59470748950740426 126 179 132 152 139 154 134 150 142 160
2479 -0.82228489134079563 0.93053318346000846 3.0092037947215551 26 18 7 0.19367181983171769 124 137 132 165 127 104 138 181 137 176 135 171 139 167 136 182 140 175 143 154 144 175 145 161
2481 -0.41775347472477453 1.7270877056471627 3.1430554192685523 35 34 32 0.20017654299821544 127 230 132 220
2483 0.66330299906883861 1.3401380809460419 3.1051617687199986 79 75 71 0.87734814382741799 128 253 129 296 130 333 132 253 127 262 126 216 125 200 138 272 137 275 137 325 138 321 133 242 133 287 134 295 135 305 139 268 139 314 136 265 136 312 131 297 140 308 143 292 145 286
2484 -0.47804907858252443 1.7288174458794361 3.1861959453840423 1 0 0 0.31257719477157714 127 279 128 274 132 278 140 278 143 261 141 215 142 285
2485 -1.9534209024885896 1.3105499106897527 3.2688900926588129 19 15 14 0.99804740020558869 127 334 128 321 132 323 133 309 135 369 136 370 131 321
2486 -0.55637961507678257 1.7418932649092926 3.1820880332000412 42 42 34 0.62670217050627219 128 272 130 236 113 181 114 175 116 300 132 219
2487 -0.84608013974708596 1.6267046205900755 3.1292627492767959 13 5 7 0.17093532697414351 124 305 126 300 125 280 129 251 130 291 132 207 128 204 130 222 138 225 137 222 133 198 135 273 139 216 131 209 143 253 144 214 141 207 142 215
2488 -0.58879820949384809 0.44608130877310381 4.3778526943144485 98 88 87 0.82916051951699943 107 267 109 271 108 271 99 271 106 288 110 293 113 187 106 219 99 203 111 193 115 107 114 178 116 117 118 106 132 0 120 94 122 100 123 88 124 110 126 110 125 0 127 73 128 83 129 1 130 101 138 97 137 112 133 91 134 78 135 82 139 93 131 0 140 97 143 87 144 103 141 95 142 102 145 93
2489 -0.39608687097086004 0.60557737848848414 3.0394412348281579 44 38 36 0.87717814926106785 126 116 130 181 132 159 108 5 114 2 119 6 112 9 113 98 114 102 108 6 115 3 116 5 118 7 120 3 121 95 122 3 123 7 124 11 125 94 127 164 138 173 137 167 133 97 134 90 135 166 139 160 136 120 131 104
2490 -0.98064160048434745 0.60078042781916408 3.5344864626701993 88 79 74 0.23827443571620954 122 265 138 244 137 246 131 222
2491 -0.71670579491263242 1.5384430411101506 3.0195778689409378 157 138 136 0.22305513142166622 5 98 7 115 10 197 6 114 18 179 2 105 34 165 28 198 31 101 35 165 36 188 37 99 38 200 138 152 114 84 122 85 127 64 132 79 137 91 133 77 134 65 136 86 131 144 140 80 143 78 144 89 141 77 142 85 145 78
2492 0.067584502036986571 0.57618531217160718 3.9263626415704649 102 111 104 1.1995939859507616 115 187 120 97 121 163 122 263 138 104 130 112 137 166 130 6 134 88 135 93 140 164 141 102 140 5 142 108
2493 -1.1961869782473333 1.6699287450331373 2.883135945686865 87 79 75 0.58803343476043846 127 277 129 208 138 289 94 198 96 204 100 244 102 281 99 259 101 191 106 216 95 193 109 265 110 288 112 277 111 269 114 173 115 265 116 299 118 268 120 248 121 239 123 245 124 260 122 256 126 248 128 216 132 216 134 218 139 285 143 209 144 226
2494 -0.44324023674994406 1.0155422384267008 3.0601428687737657 72 59 52 0.68137485931429476 118 223 120 195 121 192 122 208 123 196 124 209 108 281 126 203 125 188 127 178 128 173 129 169 130 190 138 186 21 306 5 238 22 316 28 313 25 316 26 287 27 301 23 304 24 285 31 294 20 315 29 299 14 291 11 243 7 256 8 253 9 256 13 321 12 313 6 259 16 235 4 225 15 309 30 287 17 261 3 244 32 271 2 242 1 230 33 220 35 228 34 231 36 145 37 314 38 234 39 244 96 307 132 169 137 183 133 161 134 170 135 177 139 172 136 187 131 173 140 180 143 158 144 179 141 170 142 180 145 165 40 213 42 217
2495 -1.4300180858302645 1.0283611712161427 2.9435772161554818 156 130 133 0.19037033443001605 110 161 111 135 115 135 116 152 117 141 124 40 114 34 121 28 122 25 125 119 127 26 129 51 138 122 122 26 130 45 132 48 137 50 133 41 134 25 135 36 139 120 136 140 131 43 140 47 143 112 144 46 141 40 145 42
2496 0.63587421851743287 1.3455451891622585 2.98735518039754 74 64 59 0.41407480700752081 128 134 137 71 135 136 143 66
2497 0.8709550600513154 1.461769974578053 3.3542443990645197 205 210 212 1.3400869801085964 128 61 137 77 129 66
2498 0.21022564221451476 0.9981276774525033 1.9193874922973153 203 205 202 0.59690444690743527 128 182 129 175 132 126 137 191 126 211 130 143 125 196 127 255 136 145 131 126 140 132
2499 -0.17416654216440169 1.7288167309944766 3.2254789945440319 0 1 0 0.31289853194501299 128 276 138 234 137 238 125 236 133 212 135 232 139 235 131 218 144 228
2501 -1.9334539911340063 0.80369961627939679 3.581462226207107 14 14 14 1.0788879770575091 128 284 129 271 130 310 138 306 137 306 127 289 134 228 132 234 139 295 136 296 131 231 129 218 140 289 144 279 145 218
2502 -1.6870185844589844 0.83543057819413591 3.9679399398741872 26 22 21 0.39046988589022613 128 348 130 404 132 371 138 391 137 395 133 359 134 364 135 380 139 382 136 382 131 368 140 380 143 357 144 368 141 346 142 379 145 353
2503 -1.3040571766166853 1.3151794745137599 2.858383464940351 139 126 126 0.48005061772133661 7 479 9 477 2 453 1 408 137 351 28 415 30 432 31 440 35 441 34 446 36 415 38 436 38 468 39 411 94 377 96 402 93 400 100 375 102 405 101 391 106 449 97 397 103 390 98 390 105 400 95 387 107 419 109 395 108 418 110 447 109 429 113 379 112 391 112 431 111 415 92 453 114 379 115 381 116 424 118 397 117 386 119 380 120 361 121 345 122 363 123 365 124 384 126 359 125 352 127 342 128 329 91 400 90 394 129 325 130 364 132 332 138 349 133 318 134 322 135 336 139 343 136 341 131 330 140 332 143 313 144 326 141 308 142 334 145 316 89 416 40 386 88 416 87 361 41 388 42 403
2504 -1.3038839087815426 1.3149503662989321 2.8577489717032445 139 126 126 0.47477256177421545 7 478 9 476 2 452 1 409 137 350 28 414 30 431 31 439 35 440 34 445 36 416 38 469 39 412 38 437 94 376 96 401 93 399 100 374 102 404 101 390 106 448 97 396 103 389 98 389 105 399 95 386 107 418 109 394 109 428 108 417 110 446 113 378 112 392 112 430 111 414 92 452 114 378 115 380 116 423 118 396 117 385 119 379 120 360 121 344 122 362 123 364 124 383 126 358 125 351 127 341 128 328 91 399 90 393 129 324 130 363 132 331 138 348 133 317 134 321 135 335 139 342 136 340 131 329 140 331 143 312 144 325 141 307 142 333 145 315 89 415 40 387 88 415 87 360 41 389
2506 -0.59319751442648661 1.7000227658624607 3.0367759493231543 54 53 50 0.18226519448203082 125 87 133 87
2507 -1.5225519370244192 0.84875755028055089 3.5657379112804453 20 10 9 0.19582587724011968 126 123 127 90 138 175 133 101 140 103 142 117
2508 -2.0055184783570148 1.3315124093933859 3.2023679092817252 77 63 72 0.35541351229815377 127 123 137 137 138 133 133 122 134 35 135 42 139 50 140 136 141 133
2509 -2.0379936663736125 1.3033761731803506 3.0731063884254275 197 180 190 1.0238521969212879 127 121 137 194 138 196 133 170 142 138
2510 -0.4758478702941602 1.7197574193583998 3.1888263630866698 3 2 0 0.20272936291511248 126 246 137 234 133 210 135 228 138 232 139 233 131 216 140 227 143 211 144 223
2512 -1.4705741506449654 0.9710906325425781 0.19583231740366425 0 0 0 0.85592164736204346 126 427 137 423 133 390 131 396 143 386 144 398
2513 -0.078323646979346517 1.5140251087019312 2.0471951676704161 0 0 0 0.89556811577416751 127 406 128 396 137 424
2514 -0.80692031664195163 0.54424937503545856 3.6356248135150944 51 50 44 1.6964066388625194 137 420 11 510 14 460 7 519 8 513 10 502 9 508 13 492 12 491 6 525 4 480 5 510 15 481 17 491 3 489 2 493 1 453 130 428 128 393 129 386 132 396 138 411 133 386 135 401 139 406 136 407 131 391 140 404 143 383 144 392 141 372 125 418 142 405 145 377
2515 -0.13019571784593781 1.3904923822726583 3.0449142038057606 154 130 131 0.42438174839551168 5 333 7 349 10 343 133 183 98 313 100 299 102 333 105 328 106 332 107 314 97 317 109 319 108 304 113 314 111 309 121 271 123 218 108 240 114 236 124 223 132 192 137 205 135 202 139 197 136 212
2516 0.20833437015664874 1.3728681108098328 3.0958128664714124 126 107 110 0.34862680083696546 5 170 6 191 7 185 9 189 3 183 1 176 33 143 17 201 24 177 29 179 30 168 32 150 13 169 14 161 15 250 16 252 18 167 19 176 20 185 22 184 23 180 35 142 34 144 36 163 38 171 39 69 133 129 114 152 115 158 116 178 118 155 117 159 119 73 117 66 118 75 121 58 122 65 123 140 127 131 128 132 91 189 92 196 90 190 132 132 137 145 134 135 135 135 139 137 136 155 131 137 140 144 144 74 137 70 141 141 142 143 145 131 113 148 110 191 111 159 112 182 109 169 89 196 88 217 86 166 85 70
2517 -0.34495955633713582 1.2627526428675278 2.9903614225624464 50 30 37 0.48863087765576563 106 323 107 307 21 321 5 323 22 330 28 334 25 336 26 300 27 314 23 318 24 304 31 313 20 332 29 319 11 336 7 337 8 344 10 332 9 330 13 335 12 331 6 350 18 322 16 315 15 327 19 317 30 311 17 351 3 315 32 287 2 321 33 321 35 309 92 330 91 313 95 236
2518 -1.5332723768864804 0.90116244956844482 3.4404156551074365 6 5 5 1.1725592559825095 98 275 99 285 100 266 101 282 103 274 105 290 107 278 95 283 97 282 109 285 112 292 114 273 21 300 5 296 22 309 28 305 25 307 26 282 27 294 23 297 24 280 31 226 23 228 25 234 26 206 27 223 28 235 21 216 20 234 29 294 14 219 11 308 7 246 7 315 8 317 10 230 10 305 9 306 12 225 12 303 6 326 18 220 16 221 4 281 19 224 30 282 17 249 3 295 32 199 35 119 36 134 91 286 90 285 89 362 88 368 87 346 86 295
2519 -0.50523786744082411 1.0973975038773269 3.0242276149338734 14 14 12 0.89791253485798717 115 423 116 473 120 426 121 408 122 411 123 416 124 433 126 411 125 406 127 392 128 381 129 375 130 420 132 387 21 462 5 498 28 480 27 450 31 467 29 462 14 451 10 490 9 498 15 475 32 441 33 474 34 466 37 498 38 495 39 472 138 404 137 410 133 375 134 380 135 393 139 396 136 398 131 381 140 394 143 372 144 384 141 359 142 393 145 365 40 436 41 431 42 433 43 401 44 320
2520 0.50532264298304674 1.1249106047600244 3.7862126629174253 39 30 30 1.9856066588206196 94 140 96 151 100 129 102 144 99 46 104 137 101 134 106 156 103 148 105 161 95 138 109 39 108 132 91 240 90 235 94 38 96 41 102 40 95 49 31 45 15 47 22 46 23 58 24 49 26 39 27 51 28 52 29 54 12 34 13 40 16 44 17 48 18 37 19 48 21 49 107 54 108 47 110 59 111 39 89 255
2521 -1.8809053705248873 0.91717789342245559 3.3168657831659938 17 16 18 1.4078504367581319 94 272 96 295 93 289 100 267 102 297 99 286 104 275 101 283 97 281 103 275 98 274 105 291 95 286 107 281 109 284 108 278 113 282 111 281 91 226 114 270 116 313 118 286 119 278
2522 -1.0216340070114889 0.84027982321859129 3.1853910968682073 19 21 18 0.20604077584875191 126 29 138 30 134 17 135 22 139 25 136 29
2523 -1.0142879133796583 0.82097122876591544 3.2467123510166345 19 21 18 2.4462224235046501 126 28 130 21 132 23 138 31 134 18 135 21 135 14 139 19 139 26 136 24 136 30
2524 0.30080272602839903 1.3306405909619017 3.211042238198317 47 41 41 0.24935789121345395 127 49 130 67 134 41 131 59 142 61 141 137 144 68
2525 -1.6522272087047081 1.33337158954888 2.820786047544781 160 133 126 0.037182721015700103 125 67 134 46 141 59 145 60
2527 0.010009666609790129 1.7112065668347056 3.1371347169555932 57 58 52 0.17666473961891108 128 218 138 238 134 220 139 239 140 231 143 215
2530 0.22924972985410053 1.7195306785882285 3.3424521205183697 30 24 22 0.9112634778412313 114 394 115 414 116 435 120 378 121 358 122 374 123 332 125 363 128 344 137 330 133 290 134 303 124 351 126 333 127 310 128 307 129 252 130 341 132 304 138 324 135 311 139 319 136 318 131 301 140 351 143 332 144 302 141 290 142 353 145 292
2531 -0.20956629492754822 0.47035297149906036 3.6054154477277409 37 39 37 1.5684630457994715 125 239 132 2 134 83 128 153 133 0 135 1
2532 -0.26864559168457391 1.7300141215029363 3.1593399746445163 50 49 43 0.24100994492421687 126 250 128 219 132 221 134 151 127 154 129 148 138 168 139 155 140 156 133 88 143 142
2533 -0.82906047579672237 0.86061281761750763 3.12305944480604 28 4 0 0.12080394931441647 119 31 129 31 132 38 138 36 135 28
2534 -1.3503705903361582 1.7188967404144346 3.0972313104165168 4 3 0 0.29984383935585501 126 175 137 104 135 79 136 99 140 93
2535 -1.215367320590685 0.41530304250915756 3.9863880385796553 57 61 56 1.0810221245310865 127 284 135 315 141 291 144 305 143 297 145 293
2536 -0.71828402066677288 0.90592760138730499 3.0499503257948408 56 43 47 1.3329727365816622 96 31 100 22 116 31 124 30 126 133 129 42 130 38 132 114 138 42 135 112 94 329 96 299 102 365 99 354 101 350 106 365 97 348 103 346 98 345 95 349 107 341 108 279 110 371 112 380 114 336 115 285 116 314 116 406 118 289 117 281 119 281 120 270 121 254 122 276 123 307 124 280 125 248 130 320 134 165 139 113 136 36 131 241 134 286 140 115 143 30 144 122 141 164 142 305 145 160
2537 -1.3690084494193462 1.437945883321244 2.8820049279784521 154 135 137 0.23865658949158264 11 101 135 59 139 67 144 80 142 75
2538 -0.73975835917577104 3.1742206405167455 8.0205674820398194 45 40 38 0.65109676009263673 123 248 138 235 139 152
2539 -1.0364587312567339 1.1987211130732216 2.8964886267192087 157 136 135 0.56666660629183252 11 332 8 337 12 327 139 263 96 321 93 310 102 320 104 297 97 304 33 319 103 298 98 300 95 308 113 303 92 321 114 291 115 295 116 326 117 292 120 280 121 262 126 281 127 190 128 180 129 234 130 269 132 248 138 266 133 237 135 256 136 258 140 257 143 236 141 240 142 260 145 231 89 326 88 334 87 311
2540 -1.7162633776947505 0.68477464202299132 2.3846387848438142 29 36 29 1.1068159737161687 129 13 132 21 133 100 134 10 135 9 138 23 139 17 136 23 137 21 131 17 140 15 143 20 141 16 141 17 142 115
2541 0.38808024822031173 1.0401627461464118 4.0523098909829693 60 59 55 0.33331403457486986 127 243 130 187 132 166 133 159 134 166 135 172 137 177 138 183 139 168 136 183 126 270 131 243 140 176 143 155 144 176 141 166 142 176 145 162
2542 -0.58288009728202161 1.7068956638728352 3.0627085219323016 47 47 42 0.35248605880594025 127 231 138 237 139 238 136 236 131 153 143 214 142 228
2543 -0.61338106548355831 1.4904761271288951 3.0214284830940557 153 133 133 0.26673063313820305 23 329 7 361 20 343 25 354 28 350 29 337 31 329 8 359 9 347 18 337 16 329 19 327 136 218 109 325 113 245 118 251 100 235 108 246 119 242 121 220 123 228 124 229 126 224 125 210 127 207 128 198 91 256 90 255 129 188 132 199 138 216 139 207 142 206 145 190 89 266 88 286 87 206 86 159 85 56
2544 -0.61018096497895791 1.4070188057864508 2.9962253024616894 7 1 1 0.40746932469563957 119 75 120 62 136 71 14 67 7 103 20 94 25 74 26 75 13 82 18 75 16 77 17 94 34 159 98 85 93 68 96 175 100 158 101 69 96 78 106 86 108 81 108 158 91 184 132 70 133 60 134 49 139 63 131 68 143 68 144 76 141 63 142 68 87 94
2545 -0.1805821674628926 0.5222755173683542 3.690893277827759 16 19 13 0.55325552677402612 122 175 129 97 132 5 133 1 134 1 137 4 138 8 139 5 131 9 136 10 140 4 143 6 142 2
2546 -0.22522214264236209 0.55660669630492288 3.1068112427975625 33 33 34 0.49230542095200591 128 89 131 10
2549 0.74953035415952685 1.0569877673890613 4.2810919181474576 200 209 212 1.2048136723613867 124 33 125 117 128 109 131 36
2552 0.78172197728877679 1.4557204116889559 3.3160758636727481 6 7 9 0.23860030701957868 125 69 126 84 135 53 136 76 131 72 142 69
2553 -1.679824959326319 0.96552848331942132 3.228289464770572 28 18 17 0.27560975972714175 126 200 128 167 131 169 140 174
2554 0.26816647738843902 1.3221935816501542 3.2161200791297162 58 48 47 0.15421694979002462 128 189 131 187 127 197
2556 -0.75211972542626448 0.22950796009104438 2.6754450475296068 0 0 0 0.83288798137291908 126 424 127 405 129 392 131 394
2557 -1.0715630356941874 0.81253971834858674 3.3055387667737599 15 15 14 2.4570183953588232 124 22 130 19 135 12 131 20 123 24 132 26 137 31 144 15 145 21
2558 -0.92578563261950075 1.5538581799066402 2.9789010296509186 46 39 38 0.51790964406142304 3 265 1 198 131 146 92 117 116 185 124 99 126 159 125 145 128 140 91 192 90 194 129 85 132 144 138 153 133 136 135 143 136 158 143 134 141 147 142 147 145 136
2559 -1.0720405185970092 0.78319590983617615 3.2943834128651002 32 32 26 0.26488271135315339 120 11 121 18 124 21 123 20 126 21 127 10 135 13 137 23 145 22
2560 -0.86118173518793129 0.46365094936318962 4.2159660602769549 26 20 20 0.3762463401050532 124 311 136 321 140 283 125 322
2562 0.26463384751114016 1.3889887798606988 3.1178913876337555 76 77 69 0.16273217194861031 111 243 134 189 136 209 143 176 112 248 113 238 131 192 133 179 144 198 142 195
2563 -1.1529218802914534 1.6298061427489134 3.1090795450525075 9 7 9 0.14641835971836256 127 214 137 221 143 194 144 213
2564 -0.11031074080138523 0.43597680049485538 -1.0645124545702855 0 0 0 0.10457319531733827 15 486 111 447
2565 -0.11031074080138523 0.43597680049485538 -1.0645124545702855 0 0 0 0.10457319531733827 15 485 111 448
2566 0.11570785548054208 0.65450465233672239 3.8529483413881493 101 108 104 0.48811833995787335 114 104 116 6 122 109 121 96 127 8 129 156 123 257 132 103 138 108 133 98 135 97 131 106 143 92 128 10 130 12 137 14 144 7 142 6
2569 -0.34643707434344018 1.0408660737567625 3.0204993147297063 0 1 0 0.58593528444822474 19 455 28 465 15 461 16 446 17 474 18 448 20 455 22 458 24 436 25 464 37 481 144 372 114 424 115 420 116 459 117 429 120 410 121 395 122 399 123 402 124 420 127 379 128 369 138 395 134 368 139 386 39 433 40 406 43 349 44 284
2570 -1.6923175414990128 1.6690570218059959 5.5246887875897155 30 20 24 1.3362583990216015 112 468 145 380 113 455
2571 -1.5976336663812465 1.5719843932801738 5.2387260609061013 30 20 24 2.325798994958892 112 469 144 400
2574 -0.068200680640213618 1.0316296965401266 2.5748753471356705 24 20 19 1.2548212450799809 125 193 134 175 141 235 126 276 127 302
2575 0.63455038292426669 1.4130155164044389 3.1377790908323204 131 129 130 0.66928205406509689 102 267 115 240 118 246 117 245 121 215 123 219 137 150 132 137 138 144 133 133 135 138 139 140 141 143 32 65 94 74 96 85 29 89 93 77 100 73 102 93 99 85 104 88 101 76 97 89 98 91 95 88 107 92 112 98 92 103 114 62 117 72 124 75 128 56 137 74 133 61 139 65 136 74
2576 -2.0909788026277636 0.97590828381696104 2.8258478325646239 32 22 26 0.47918627530477392 129 49 136 185 137 128 139 117 131 40 134 168 141 122 128 169 137 263 134 235 139 256 136 249 140 250 142 128
2579 -1.4926802869024216 1.2750971143487257 4.0985945208278762 0 0 0 2.5502829568894425 14 465 143 388
2580 -1.4926802869024216 1.2750971143487257 4.0985945208278762 0 0 0 2.5502829568894425 14 464 143 389
2583 -1.7691078732857151 0.30581541002987772 -1.879501116502865 38 37 35 0.0019272760786043482 136 235 145 205
2585 -0.0967283360558783 0.81524647051017463 3.2636237601920381 196 178 180 0.039996504366695586 90 33 89 40 88 31
2586 -0.096704822463799772 0.8147318508566973 3.2633379228377239 196 178 180 0.060335173271846378 90 34 89 41 88 30 87 23 86 32 85 23
2587 -0.51862652564137979 0.87274941393367944 3.0051397179080301 214 191 185 0.068566061730618563 25 28 89 43 28 32
2588 0.33782710372762614 0.92244977805880057 4.1206378730634281 25 15 17 0.16768831780416868 90 40 91 39 89 55
2589 -0.08215530103976465 1.10277051149665 3.2161974109035669 165 155 151 0.37653681940195438 90 57 89 76 88 62 87 63 86 52 85 124 84 162 83 232
2590 0.17218491967021732 1.2292186780898275 3.0825314157852226 173 141 146 0.24555225138475295 90 84 89 93 88 92 87 95 86 68
2591 0.22321133413330582 1.3402169117888698 3.0960347436720972 56 38 34 0.134347193143392 90 106 89 105 88 110 87 102 86 85 85 65
2592 0.22321133413330582 1.3402169117888698 3.0960347436720972 56 38 34 0.134347193143392 90 107 89 106 88 111 87 103 86 86 85 66
2594 0.14449838456799152 0.86581250932391929 4.2135188314157821 23 16 17 0.19023352956825579 90 144 89 141
2595 -1.2872661941039387 1.0115021372901649 3.0714741125824401 142 121 126 0.22892979566771648 90 149 89 143 88 165 87 153
2596 0.21362097925671078 0.92828328189350595 4.0813558040276341 161 140 145 0.35755747749984645 90 152 89 147 88 265
2597 0.63089881129949765 0.87601209594871376 4.2006157103133859 249 245 246 1.0709688186468906 90 225 89 149 88 49 87 175
2598 -1.8419942724507348 1.230217274611477 2.7504032056608234 213 212 219 1.356550026889469 91 239 89 152
2599 -0.015082826429156385 1.1099494243259618 3.3489865984194696 160 141 141 0.10965350050896411 91 157 89 158 88 190 87 259
2600 -1.0567056414403857 1.2793841323486075 2.9160145919405696 143 125 125 0.16557746478812366 90 170 105 253 89 161
2601 0.25697169415444943 1.1689335367421905 3.1153498087515308 173 145 141 0.48946838833248352 90 70 89 172 88 197 87 195 86 155 85 137
2602 0.66605014717611677 1.4418813642986361 3.1634352751868979 180 148 155 0.20070383893057808 90 196 89 204 87 222 86 180
2603 -0.22209918277627769 1.7088891443301319 3.2062013765589561 73 66 57 0.43637972584354667 91 204 89 282 87 221
2604 -0.20709219490038625 0.54129661613159463 3.9126903286082118 19 19 17 0.13312845847681123 90 279 89 296 88 309
2605 0.56712687915628623 1.1375267053672296 3.7168709468199741 30 20 20 0.1070496955130474 90 305 89 329 88 387 87 384
2606 -0.61532176158452867 1.6293247954039838 3.1765584316015949 14 9 10 0.19782045723450264 90 325 89 340 88 288 87 328
2607 0.4182544087585427 1.6132163227539504 3.3147765213158631 22 13 14 0.7992131257326609 90 333 89 349 88 398 87 430 86 373
2608 0.28904955152947098 1.633571414529541 3.2967097685433 24 15 16 0.094483479872525436 90 335 91 373 89 351
2609 0.47108609608534135 1.142388464659744 3.5429638919656727 152 130 126 0.91276282253371499 90 391 89 419 88 426 87 415 86 361 85 359 84 311 83 283 82 276
2610 0.38237590977226699 1.3459279972773492 3.1346837818632731 44 32 36 0.34823103231018648 90 462 91 458 89 465 88 468
2611 0.080193385213346194 1.4229738832980596 3.1033918278901123 61 47 46 0.25133174774118616 90 464 89 466 88 469 87 449 86 400 85 367 84 314
2612 -0.014147778043401782 1.0156466848792949 3.4194038258184762 0 1 0 0.55443371941863473 90 479 89 482 88 481 87 475 86 424
2613 -0.014147778043401782 1.0156466848792949 3.4194038258184762 0 1 0 0.55443371941863473 90 480 89 483 88 482 87 474 86 423
2614 -1.4346328342424517 0.37543405545100339 3.427626260672497 0 0 0 1.870080260324136 90 484 93 477 92 503 102 486 92 504 91 484 91 487
2615 0.54884450909635563 1.2019147581074983 3.4623379331159012 31 25 25 1.6641709553852955 90 486 89 494
2616 -1.4588215496849615 1.5950707979655179 2.9638940930916582 79 72 65 0.28781001119072769 92 112 91 109 89 99 121 78 126 103 128 71 129 86 130 93 132 81 137 95 133 79 139 78 136 92 131 86 140 82 143 81 144 91 141 79 142 89 145 81 88 99
2618 0.34091576083988595 1.0258549188941786 3.915012696356023 133 113 112 1.0169664709353956 91 52 90 50 89 153 102 241 104 133 93 125 101 127 106 149 97 142 109 134 21 143 5 233 22 155 28 147 26 123 27 145 23 145 31 131 20 149 29 149 11 146 7 37 8 247 10 235 9 249 13 240 12 239 6 251 18 126 4 126 15 229 30 141 17 161 32 112 2 42 1 40 34 108 94 135 113 114 111 132 114 207 115 133 116 149 118 131 119 209 120 190 121 183 123 188 124 204 125 180 88 57 87 183 86 144 85 201 84 222 83 245 82 224 81 296
2619 -1.4744461365703965 0.75620714797312405 3.9725648151401773 118 104 101 0.76693587669067198 38 17 40 9 43 115 44 188
2620 -1.021651270447693 0.81772648524399927 3.2461722727551567 2 5 0 0.0078337989591045157 40 18 44 27
2621 -0.85696613083659201 0.89511416310295877 1.7339258251270118 143 120 126 2.8353248011781407 39 160 40 49
2622 -1.2365690006697563 0.45296140545108854 4.0272533548933129 98 93 92 0.15889018339746477 38 4 40 98 41 190 42 197 43 181 44 173
2623 -1.6150041356615426 0.75145363223912265 3.9319041373427246 127 106 111 0.25176269888668751 39 20 40 113 41 117 42 128 44 190 45 158
2624 -0.82210335244853039 0.86183337951058281 3.1194403167558926 19 10 5 0.15253231680535739 39 143 40 117 41 116 42 124 43 113 44 134 45 89 46 88 47 16 48 13 49 8
2625 -0.92728082673246359 0.91006940523886659 3.2249281914256298 62 57 53 0.56639484787040062 39 151 40 121 41 123 37 35 44 35
2626 -0.65067080525176502 1.4242889855699945 2.9952451995010505 142 129 130 0.25831656848742068 34 255 40 158 41 156 42 163 43 63 44 75
2627 -0.41446647756303179 1.5325857548083568 3.0395039205357208 48 36 40 0.23989474352852369 39 270 40 165 41 219
2628 -1.9022176507963362 1.2049633045888577 3.1207926601042573 39 36 37 0.19999787907733899 39 91 40 172 41 226
2629 0.67970330922697453 1.5510103732550247 3.1952245530557666 179 182 191 2.1301491267081101 33 154 40 221 41 215
2630 -1.8003812289074967 1.3270289439443854 2.8053166515595507 126 112 113 0.57760911137980631 38 275 40 243 41 238 42 189 43 169 44 165 45 69 46 67
2631 -1.598173911779929 1.0647774009358173 2.7890244721728523 175 157 156 0.1186488958127604 38 341 40 285 41 277 42 243 43 147 44 155 45 114
2632 -0.6940799686069592 1.3481586524237223 2.9541703360573472 52 46 43 0.32802870815794999 39 327 40 286 41 217
2633 -0.42331356952644961 1.7229667824950852 3.1653747528128733 0 0 0 0.4015015416806671 33 347 39 343 25 369 30 341 21 345 24 332
2634 -1.5433785906845132 1.0265055751151506 2.8127598997627934 19 19 17 0.45971724362885608 39 368 40 335 41 326 42 351
2635 -2.0989724437116233 1.2680234010035354 3.1788217479626333 196 201 207 0.055737422091986843 39 455 40 341
2636 -0.35955600312499336 1.1545058240540631 2.9848401491520713 148 122 121 0.49451649100846051 39 397 40 366 41 317
2637 0.0081723249485212493 1.6774954406069551 3.2792141040813174 10 11 12 0.19320802248424671 37 436 40 384 41 385
2638 -0.67258086915325455 0.73439175142228741 3.3533713287809288 18 16 19 0.83271039473733843 39 430 40 405 41 398 42 428 43 398 44 360 45 309
2639 -1.3465767162802953 1.0362701893415545 3.0165496582631022 170 142 141 0.33284142646739773 39 440 40 408 41 406 42 390 41 372
2640 -1.0515285346777441 1.3293428377766101 2.9201914514533565 137 120 120 0.1258941904907927 39 452 40 419
2641 -1.1881978024864155 0.56270387930721077 3.8874336265811116 2 2 2 0.24164010602931349 39 458 40 424 41 416 42 427 43 397 44 359
2642 -1.3018296927267228 1.4101591179824207 2.8821027966109662 142 124 125 0.60492004102766028 39 480 40 444 41 441 42 440 43 403
2643 -1.6801878207209968 1.0521924233397189 3.0419452872673536 20 21 20 2.6425687889458502 39 485 40 447 41 447 42 448 44 377
2644 -1.4393456020650059 1.7121685789715215 2.982323218967911 23 24 23 0.55903301230320346 37 297 39 295 40 195 11 205 8 301 14 270 20 213 27 280 25 211 29 207 4 198 19 199 3 283 38 217 41 183 42 104
2645 -1.5708235694936128 1.2519024770458458 2.7973433444023805 41 28 32 0.29438254881682152 36 335 39 334 40 300 21 323 5 330 22 332 28 339 25 340 26 303 27 317 23 320 24 307 31 317 20 334 29 323 14 311 11 340 7 341 8 342 10 334 9 332 13 341 12 335 6 352 18 326 16 318 4 307 15 333 19 318 30 316 17 353 3 319 32 292 33 330 35 318 34 328 37 339 38 355 94 295 96 325 93 314 100 290 102 324 99 312 104 301 101 313 106 320 97 308 103 303 98 304 105 319 95 312 107 304 109 311 108 296 110 324 113 306 112 308 111 299 92 326 114 297 117 298 119 228 120 212 122 286 123 278 124 293 126 213 125 265 127 193 128 186 91 243 90 234 129 179 130 201 132 181 138 199 133 174 133 240 134 182 134 245 135 191 139 183 136 197 131 184 140 190 143 169 143 240 144 192 144 249 141 184 142 190 145 176 145 233 89 248 40 299 88 184
2646 -0.068379649335848641 0.66625829905598755 3.5892987496271549 151 137 128 0.056522644099899676 89 21 88 16 87 15
2647 -0.5642992445211078 0.91148162022509116 2.9748801529457314 200 175 178 0.13126010904557128 89 48 88 32 87 24
2648 0.097886506689781688 1.0620146577833953 3.592176425899122 167 152 153 0.44104076485829191 89 68 88 59 87 61 86 139 85 126 84 168
2649 0.57858725295907265 1.0969748436541071 3.8135413291674567 145 136 131 0.42475991553799131 89 79 88 73 87 193 86 153
2650 0.26287033345285682 1.4048658944868453 3.1162713210669581 198 171 171 0.031223330646396357 90 114 88 117 87 117
2651 0.26287033345285682 1.4048658944868453 3.1162713210669581 198 171 171 0.031223330646396357 90 115 88 118 87 116
2652 -0.23055331340226862 0.48832533131806816 4.0735720260858805 161 145 145 0.29147806050112329 89 7 88 134 87 139 86 110
2653 -1.5523490289089121 0.88304941147087446 3.5062172492390813 8 9 7 0.54730108976096681 89 230 88 152 87 144
2654 -0.11410603005803363 0.66620603228723962 3.6020793581301374 151 143 134 0.48602081007667847 89 226 88 154 87 241 84 202 83 220 81 237 80 237 79 248 78 187 77 168 76 127
2655 -0.25032189084464418 0.79783941953510173 3.1950445906542897 62 58 48 0.26629855956609699 89 233 88 162 87 150
2656 -1.3619021907461308 1.0135796290843953 2.9987602220555098 136 118 116 0.20432763309827603 89 236 88 163 87 151
2657 -1.3619021907461308 1.0135796290843953 2.9987602220555098 136 118 116 0.20432763309827603 89 235 88 164 87 152
2658 -1.0542597511844878 1.0148713266913463 3.2189950725711998 149 123 122 0.17137983216014593 89 146 88 169 87 26
2659 -0.14502093992924139 0.969186102502955 3.1074889430593813 66 53 47 0.46501012912138823 89 57 88 177 87 167
