ply
format ascii 1.0
element vertex 1286
property float x
property float y
property float z
property uchar red
property uchar green
property uchar blue
end_header
1.577617 -0.118848 0.383372 44 42 41
1.565855 -0.116916 0.398140 40 38 38
1.549639 0.142271 -0.170712 99 90 93
1.594860 0.000976 0.100898 187 172 168
1.524055 0.271423 -0.423091 3 4 3
1.573183 0.108277 -0.090714 106 100 98
1.593914 -0.120054 0.452503 61 53 51
1.614149 0.038903 0.068905 90 70 67
1.599125 -0.084327 0.374511 85 81 84
1.602025 -0.091466 0.394166 85 80 79
1.496457 0.326749 -0.458860 19 19 18
1.466590 0.237732 -0.202972 68 57 58
1.474513 0.224035 -0.177153 78 69 70
1.603869 0.069587 0.022756 108 99 96
1.640788 -0.001797 0.151914 145 135 126
1.613029 -0.001790 0.160299 197 177 173
1.473873 0.361122 -0.492339 28 28 30
1.497436 0.197913 -0.126979 88 78 76
1.607553 -0.073871 0.377543 144 135 139
1.632771 0.042044 -0.673920 170 147 155
1.430744 -0.037867 -0.101792 42 34 33
1.390243 -0.052800 0.012052 192 178 172
1.342637 -0.141285 0.367855 89 66 66
1.343253 -0.079978 0.251167 133 117 109
1.448599 -0.040236 -0.066005 33 28 27
1.364687 -0.091616 0.255950 203 185 178
1.663376 0.036533 -0.613527 107 97 95
1.673036 0.017117 -0.574757 50 44 48
1.539669 0.011686 -0.312309 32 20 21
1.482496 -0.013387 -0.145730 117 98 99
1.408530 -0.063766 0.123524 186 161 159
1.382115 -0.084197 0.245701 162 137 132
1.548641 0.046834 -0.379942 37 36 33
1.489463 -0.007409 -0.136999 99 76 74
1.484554 -0.038250 -0.039350 20 16 18
1.478041 -0.055418 0.036429 47 26 23
1.495230 -0.042188 -0.008046 25 20 24
1.430370 -0.067546 0.195202 112 77 73
1.565335 0.054466 -0.372596 45 44 39
1.565168 0.045977 -0.367403 43 33 32
1.559086 0.038058 -0.318861 44 35 38
1.513155 0.002768 -0.148852 84 60 56
1.494790 -0.031870 -0.016823 28 27 30
1.473039 -0.051822 0.114765 22 19 16
1.565380 0.051061 -0.340490 46 42 39
1.526820 0.010168 -0.165872 101 83 79
1.641827 0.055886 -0.455739 90 70 72
1.237607 -0.069861 -0.128253 52 46 38
1.147459 -0.107326 0.181805 36 28 28
1.146255 -0.108992 0.201196 44 31 36
1.408655 -0.044152 -0.545152 83 73 66
1.214056 -0.063391 -0.075983 64 50 44
1.144690 -0.119456 0.288098 61 37 36
1.418579 -0.048586 -0.498094 79 67 59
1.276969 -0.069245 -0.107918 56 53 46
1.243701 -0.068014 -0.037365 50 40 36
1.431048 -0.043317 -0.485828 65 50 46
1.287647 -0.067603 -0.087465 52 51 40
1.214154 -0.136762 0.341702 114 93 90
1.343366 -0.034074 -0.291340 184 165 157
1.302045 -0.064700 -0.085194 57 53 42
1.339128 -0.052300 -0.146975 196 179 172
1.551139 -0.019596 -0.662430 111 106 102
1.662312 0.049149 -0.599225 77 66 72
1.649260 0.050065 -0.577363 77 61 68
1.628215 0.040100 -0.516339 111 96 94
1.603637 -0.126118 0.540515 168 154 153
1.655491 0.057501 -0.561691 42 31 35
1.633223 0.045795 -0.463692 108 88 90
1.663598 0.058983 -0.579798 59 54 60
1.667719 0.065470 -0.574594 69 64 70
1.564058 -0.034996 0.306824 48 39 35
1.674201 0.071261 -0.584219 117 115 123
1.686180 0.081538 -0.588322 216 208 206
1.691055 0.089743 -0.581167 206 201 198
1.678702 0.079309 -0.462524 127 102 98
1.538255 0.118519 -0.197286 79 76 72
1.684919 0.082470 -0.477645 137 106 108
1.556827 0.100036 -0.106943 77 74 67
1.626760 -0.039115 0.397767 65 52 46
1.544402 0.116889 -0.117281 93 90 86
1.376162 0.327614 0.167940 6 7 5
-0.017730 0.690974 -0.675953 0 0 0
1.394109 -0.051413 -0.500469 125 117 113
1.379094 -0.041102 -0.117397 67 54 41
1.537687 -0.143980 0.621819 219 220 216
1.390295 -0.012077 -0.691079 32 33 33
1.438722 -0.034127 -0.531215 100 91 80
0.806192 0.326608 -0.663553 168 152 148
1.490526 -0.059891 0.216303 38 27 22
0.978394 0.245453 -0.670199 65 47 46
1.456157 -0.016104 -0.676630 148 143 143
1.028444 0.225300 -0.676833 81 65 75
1.556171 -0.077252 0.350165 39 35 32
1.561607 -0.083335 0.367446 38 34 30
0.455833 0.300027 -0.664142 45 40 43
0.505098 0.277384 -0.665927 54 45 43
0.523051 0.267113 -0.667097 63 50 51
0.589256 0.238805 -0.668723 62 45 44
0.630970 0.212211 -0.670628 68 47 46
0.694460 0.183421 -0.677798 166 147 144
0.776743 0.144715 -0.678276 155 140 143
0.827641 0.128951 -0.677008 59 47 49
0.465573 0.306359 -0.670870 47 42 48
0.900295 0.102781 -0.688751 107 80 85
0.576798 0.264793 -0.659726 63 45 45
0.626347 0.241258 -0.663142 56 39 41
0.666201 0.223859 -0.668921 70 50 51
0.785867 0.175657 -0.674360 152 140 135
0.843356 0.143576 -0.674217 57 48 48
1.191204 -0.037923 -0.639503 121 103 103
-0.170551 0.635141 -0.617808 17 23 26
0.004509 0.551097 -0.608682 50 48 40
0.514082 0.302128 -0.660700 51 41 42
0.587997 0.273187 -0.668053 60 44 46
0.754436 0.196319 -0.675716 165 146 140
0.844086 0.153670 -0.675444 61 53 53
0.993981 0.066753 -0.696762 168 145 146
1.281190 -0.053569 -0.369269 93 77 77
0.824607 0.175115 -0.673886 112 96 97
0.919109 0.118689 -0.683254 82 65 63
1.001302 0.077286 -0.697385 172 146 146
1.031074 0.058254 -0.697766 172 154 150
0.018766 0.573437 -0.606823 2 3 0
0.051038 0.555411 -0.602659 4 4 0
0.530885 0.320033 -0.667828 48 36 38
0.681086 0.242453 -0.668059 82 62 64
0.747495 0.215062 -0.673587 143 127 127
0.794904 0.187415 -0.679475 102 83 82
0.911808 0.130129 -0.682078 70 56 53
1.018492 0.079223 -0.694845 164 146 142
1.085484 0.049421 -0.686891 64 50 51
-0.009342 0.596965 -0.606810 8 5 3
0.592198 0.299353 -0.665987 55 43 45
0.801448 0.210174 -0.674179 90 76 77
0.912449 0.142206 -0.684150 67 56 51
1.051526 0.076323 -0.693705 138 120 116
0.024817 0.598759 -0.598621 4 9 5
0.555477 0.335265 -0.672987 57 49 50
0.681528 0.273632 -0.667113 102 82 84
0.722592 0.250199 -0.665841 158 139 138
0.864585 0.176959 -0.673238 64 52 51
1.007016 0.105316 -0.690956 131 109 112
1.073141 0.079687 -0.684074 76 66 62
1.186581 0.022566 -0.695826 51 39 40
0.011536 0.612718 -0.616481 8 9 7
0.032518 0.603546 -0.611569 2 3 7
0.076504 0.576772 -0.600537 15 13 14
0.759480 0.248200 -0.666257 169 153 149
0.929335 0.157508 -0.683562 63 54 49
1.005368 0.116173 -0.689821 118 107 105
1.171210 0.034918 -0.699609 54 41 40
1.304062 -0.035580 -0.672513 30 31 29
1.508209 -0.077658 0.286028 34 23 21
0.019163 0.618910 -0.625875 11 13 21
0.047551 0.606433 -0.613517 2 3 4
0.715305 0.274285 -0.668025 140 118 116
1.217002 0.015592 -0.690101 141 117 117
1.268340 -0.003950 -0.688415 192 172 167
1.332047 -0.035244 -0.652201 26 21 21
-0.059603 0.385433 -0.682064 107 86 85
0.013109 0.347653 -0.690573 159 138 139
0.044879 0.335733 -0.689466 137 122 120
0.229648 0.262875 -0.670306 65 57 54
0.308523 0.224301 -0.686702 46 36 37
0.405609 0.192046 -0.689692 51 40 42
0.468820 0.161861 -0.684154 45 36 36
1.137702 -0.066643 -0.222793 144 115 109
1.350389 -0.096390 0.291506 124 100 98
0.016096 0.355170 -0.688869 138 124 121
0.602981 0.117844 -0.684319 57 48 43
0.599923 0.117472 -0.681787 57 48 44
0.059388 0.358100 -0.686849 83 68 68
0.152816 0.314174 -0.688723 60 45 50
0.252859 0.278832 -0.675924 56 46 47
0.308999 0.245921 -0.676855 46 35 37
0.362970 0.230197 -0.681026 37 32 35
0.500241 0.168968 -0.684765 27 22 21
0.978899 -0.027023 -0.675007 136 106 104
1.137505 -0.063699 -0.427297 31 26 24
1.122689 -0.059407 -0.399094 27 21 20
1.587563 -0.136815 0.564479 52 44 44
0.244646 0.299620 -0.673457 61 48 50
1.147209 -0.066760 -0.460950 27 28 23
1.153561 -0.060510 -0.424684 33 28 25
0.089388 0.365230 -0.680831 80 73 73
0.157360 0.344630 -0.677052 50 40 42
0.508875 0.192748 -0.682432 32 23 18
0.989012 -0.012577 -0.678776 164 132 131
1.016811 -0.029511 -0.672463 177 153 146
1.061466 -0.037592 -0.650964 64 41 34
1.405767 -0.083030 0.231700 128 110 102
-0.227287 0.529289 -0.620149 24 24 19
-0.202775 0.517788 -0.616659 35 33 29
0.104366 0.373658 -0.671567 79 69 68
0.189671 0.337109 -0.678997 71 57 60
0.351874 0.268589 -0.677610 40 35 39
1.190974 -0.061000 -0.440140 31 25 23
0.296009 0.306444 -0.670286 48 38 38
1.041765 -0.011438 -0.683229 149 115 113
1.082414 -0.027181 -0.640743 55 35 36
-0.417102 0.622395 -0.652623 0 2 1
-0.326598 0.585156 -0.633005 9 9 6
0.159031 0.375400 -0.661390 44 37 41
0.488332 0.229601 -0.681041 46 43 38
1.081563 -0.025266 -0.654991 54 36 34
1.135702 -0.043385 -0.634743 57 37 37
-0.274221 0.569211 -0.622530 0 2 0
0.381614 0.293418 -0.671599 44 35 38
0.717515 0.142471 -0.679546 174 155 155
1.155215 -0.040311 -0.636033 54 32 36
-0.339377 0.621732 -0.642307 17 18 25
-0.336262 0.611739 -0.630067 10 12 14
-0.273143 0.592225 -0.626602 1 4 3
-0.242602 0.578619 -0.622192 3 5 1
0.411613 0.299919 -0.658578 49 41 42
0.471530 0.264188 -0.671886 41 40 37
0.641021 0.187785 -0.672331 106 83 80
0.679299 0.167613 -0.672946 166 146 142
-0.977638 0.419308 -0.757640 34 33 38
-0.162201 0.153498 -0.695369 48 39 36
-0.967842 0.438979 -0.747003 65 64 60
-0.964898 0.430929 -0.745844 113 112 117
-0.407130 0.242100 -0.721249 77 71 72
0.023044 0.107368 -0.688435 157 139 139
0.880541 -0.132547 -0.196665 0 1 1
0.934164 -0.133225 -0.008088 151 127 118
-0.969319 0.457350 -0.750824 2 1 3
-0.303451 0.223154 -0.719673 52 40 39
-0.190181 0.181064 -0.699997 55 48 47
0.515917 -0.063314 -0.647809 22 17 15
0.755770 -0.109183 -0.392375 3 3 1
0.823236 -0.118184 -0.314306 0 1 0
0.843161 -0.112265 -0.266422 0 1 0
0.857082 -0.118062 -0.234239 0 1 0
1.061084 -0.143016 0.129885 110 94 91
-0.157257 0.185667 -0.696370 46 40 43
0.024070 0.118682 -0.691534 134 120 120
0.227321 0.053946 -0.700324 109 94 91
0.299933 0.035087 -0.689093 56 44 40
0.360206 0.001733 -0.698117 105 91 84
0.762322 -0.097037 -0.415616 59 54 51
0.769815 -0.092143 -0.374005 13 16 13
0.828069 -0.110426 -0.323359 1 3 0
-0.147715 0.193754 -0.695717 37 31 34
-0.052620 0.156096 -0.701091 38 32 35
0.247736 0.041194 -0.711117 61 44 42
0.287058 0.039221 -0.695346 52 36 36
0.356806 0.015057 -0.691808 104 90 86
0.833408 -0.096435 -0.314443 3 3 2
-0.294755 0.250881 -0.702526 47 46 38
0.362063 0.031185 -0.674558 135 121 118
0.778656 -0.090588 -0.465256 113 101 99
0.899700 -0.103263 -0.261367 19 16 15
-0.740146 0.427777 -0.697227 47 45 37
-0.030843 0.174528 -0.701705 42 38 34
0.031031 0.159596 -0.685611 60 48 41
0.320213 0.048047 -0.693109 120 109 108
0.795310 -0.078687 -0.441445 69 61 57
0.904809 -0.097856 -0.269299 23 17 19
-0.572536 0.370947 -0.724814 40 35 29
-0.053013 0.193090 -0.698724 37 33 33
0.042494 0.168677 -0.676063 47 44 33
0.363436 0.056544 -0.672877 173 152 150
0.959860 -0.098250 -0.175539 81 76 73
0.969432 -0.100322 -0.152677 39 39 37
0.992603 -0.100583 -0.144732 35 32 31
1.046717 -0.115142 -0.119549 29 24 21
1.387088 -0.143167 0.506189 55 50 44
-0.367458 0.322152 -0.705236 49 39 38
0.037336 0.175454 -0.687763 46 38 36
0.378002 0.054895 -0.694446 154 136 135
0.650819 -0.044387 -0.690158 43 33 34
0.901699 -0.083475 -0.298498 26 20 19
1.330724 -0.143902 0.305553 64 33 35
1.357490 -0.147963 0.361797 56 33 32
1.363270 -0.144710 0.379437 73 57 57
-0.234225 0.281029 -0.708039 41 34 34
0.353075 0.077330 -0.699044 161 141 140
0.914523 -0.076224 -0.304137 29 29 24
1.065196 -0.091533 -0.072906 26 23 22
1.057759 -0.093472 -0.035842 32 27 25
1.034789 0.398629 -0.569831 31 26 25
1.146885 0.348779 -0.598473 52 37 38
1.504647 0.182508 -0.668234 96 73 72
1.651321 0.112160 -0.720975 38 32 35
1.692864 0.132200 -0.582819 2 2 1
0.734124 0.524457 -0.575804 58 52 40
1.397447 0.227200 -0.696179 173 150 143
1.682889 0.137987 -0.597266 6 3 1
0.633547 0.570025 -0.604369 4 6 3
1.484092 0.220036 -0.667218 41 32 31
0.657793 0.577533 -0.597298 5 9 9
0.682129 0.572897 -0.585689 8 11 12
0.876690 0.475650 -0.635156 40 40 29
1.263216 0.320382 -0.655464 52 34 35
1.275989 0.311364 -0.663800 47 28 29
1.345358 0.272970 -0.695687 58 45 39
1.381432 0.258786 -0.703915 20 9 5
1.051675 0.443238 -0.555251 26 22 18
1.266084 0.330821 -0.650698 37 25 24
1.443018 0.247907 -0.681893 5 2 1
1.052098 0.454717 -0.551486 26 25 18
1.251734 0.345026 -0.641289 41 30 31
1.278059 0.338572 -0.648469 21 12 10
0.974833 0.487000 -0.585636 4 6 3
1.035146 0.469794 -0.573270 34 29 22
1.270406 0.356287 -0.637914 23 20 16
1.303034 0.341982 -0.647573 8 9 4
1.408952 0.273615 -0.691944 6 8 3
1.377478 0.311995 -0.681122 25 23 22
0.415250 0.510017 -0.575907 48 43 37
0.542813 0.497255 -0.554389 43 42 37
0.751505 0.385437 -0.629282 47 34 28
0.955319 0.309126 -0.652051 17 18 16
1.033189 0.306725 -0.605253 47 38 40
0.295092 0.564956 -0.607495 27 26 20
0.305266 0.563643 -0.605241 11 9 5
0.821652 0.363851 -0.657493 71 62 59
1.015385 0.322429 -0.607222 45 39 39
0.778441 0.421765 -0.571072 30 18 16
0.764460 0.441159 -0.571963 26 24 21
1.012025 0.352049 -0.603843 46 40 38
0.230226 0.615040 -0.632715 1 2 0
0.914474 0.386725 -0.620951 38 32 29
0.991483 0.350816 -0.618384 24 23 19
0.681447 0.487989 -0.585067 57 51 44
0.708221 0.476045 -0.576179 44 40 29
0.765808 0.466475 -0.549012 34 35 30
1.157026 0.316422 -0.619701 44 29 34
0.922553 0.429326 -0.598234 58 50 47
1.049853 0.390194 -0.568667 34 28 28
0.961101 0.569496 -0.618386 0 1 0
0.968179 0.562629 -0.611610 8 11 9
-0.792935 0.490121 -0.690152 43 34 39
1.002423 0.234726 -0.676029 53 42 38
1.101583 0.210144 -0.687218 33 29 27
-0.426673 0.499295 -0.587738 32 28 27
0.974481 0.262770 -0.663261 41 30 30
0.998548 0.270305 -0.642580 41 30 30
1.280260 0.204413 -0.682800 75 68 64
-0.809195 0.528802 -0.680158 31 33 37
-0.731477 0.513972 -0.697868 28 27 26
0.433916 0.358009 -0.651728 44 39 39
1.011483 0.277720 -0.633851 39 28 31
1.101722 0.249542 -0.673648 34 28 30
-0.951125 0.540010 -0.737622 0 1 0
-0.703435 0.515348 -0.733769 30 30 33
-0.613841 0.538147 -0.658382 7 9 8
-0.516546 0.524383 -0.643476 53 49 44
0.773635 0.318914 -0.670779 165 147 145
1.276129 0.240373 -0.681141 161 140 139
1.569901 0.224246 -0.643063 143 150 151
-0.527112 0.537227 -0.640470 35 32 23
-0.491386 0.529750 -0.646631 57 51 42
-0.054417 0.501266 -0.576148 37 31 30
0.772855 0.328092 -0.677672 164 146 139
1.534024 0.228194 -0.643193 74 76 75
-0.388242 0.515811 -0.731630 77 68 59
0.437451 0.082499 -0.693715 55 38 36
0.809679 -0.054393 -0.972197 35 27 25
1.152058 0.031011 -0.688162 37 27 28
1.158335 0.013449 -0.701784 35 28 28
1.598598 0.024638 -0.612923 54 41 43
1.625952 0.042748 -0.563438 50 38 39
1.661234 0.056620 -0.518859 36 26 29
1.675624 0.058936 -0.510072 69 71 70
0.725351 0.071258 -0.700206 137 123 120
1.590326 0.028182 -0.634410 44 32 32
0.737928 0.087931 -0.678552 144 130 127
1.059797 0.076570 -0.644660 142 130 125
1.576506 0.031061 -0.659544 52 31 30
1.699319 0.106918 -0.448103 41 34 37
0.847323 0.069887 -0.729444 46 33 35
1.074802 0.073189 -0.674661 57 46 41
1.084768 0.073474 -0.675163 51 39 35
1.579001 0.042383 -0.656364 49 28 28
1.591916 0.045175 -0.648894 46 29 29
0.849633 0.085819 -0.727969 43 33 31
1.059806 0.100308 -0.650084 95 84 79
0.858845 0.089047 -0.733417 46 34 33
1.040026 0.107087 -0.654476 61 48 43
0.698678 0.125562 -0.701455 172 148 144
0.906894 0.139303 -0.623743 54 39 39
1.087304 0.101994 -0.687754 45 39 34
1.107144 0.096161 -0.695905 43 35 33
1.114912 0.092522 -0.704542 44 36 34
0.687542 0.125344 -0.722097 176 155 154
1.090391 0.119506 -0.681858 43 38 31
1.099820 0.110181 -0.690841 39 35 31
0.979657 0.142634 -0.660284 60 56 50
-1.141191 0.350667 -0.560454 0 0 0
-1.106592 0.337493 -0.591669 0 0 0
-1.082229 0.329923 -0.606164 18 20 17
0.272896 0.197455 -0.682596 62 41 43
1.146121 0.131345 -0.677959 36 28 27
-0.373695 0.504607 -0.614723 43 38 34
-0.036733 0.495353 -0.586236 25 25 19
1.129324 0.438540 -0.540275 20 16 13
1.137143 0.425902 -0.558775 16 14 12
1.157074 0.412667 -0.569659 20 22 18
1.145860 0.428196 -0.568669 20 19 15
-0.746345 0.513278 -0.697930 30 28 29
-0.692830 0.508694 -0.693193 14 10 11
0.202093 0.508006 -0.569537 51 46 41
0.223020 0.506191 -0.578331 49 43 39
-0.702677 0.521902 -0.694996 24 23 21
0.797424 0.480411 -0.563135 41 37 34
0.863272 0.478234 -0.557561 36 35 29
0.886272 0.471158 -0.568526 31 29 22
1.062909 0.469951 -0.567931 24 22 18
1.099161 0.477264 -0.554869 35 34 30
1.108264 0.474933 -0.557062 40 37 32
-0.586459 0.568374 -0.650589 19 19 20
-0.555382 0.561149 -0.641258 11 13 12
-0.572704 0.571364 -0.662781 22 22 24
-0.079463 0.500641 -0.721016 57 53 43
1.157852 0.459473 -0.641751 38 34 26
-0.738997 0.570431 -0.699816 12 17 23
-0.491028 0.572114 -0.656470 27 22 20
-0.072599 0.528594 -0.697736 58 58 49
1.032839 0.489326 -0.585604 33 32 27
1.170066 0.465088 -0.638368 38 36 26
1.273992 0.468802 -0.613731 3 5 0
-0.477171 0.581331 -0.658844 32 26 25
1.116130 0.473573 -0.649835 35 31 23
1.168640 0.471656 -0.647503 48 44 34
1.188926 0.475196 -0.638242 46 41 33
0.186627 0.521046 -0.708184 71 65 57
-0.952583 0.494304 -0.749326 0 0 0
-0.366115 0.500935 -0.652169 38 33 27
1.133857 0.450661 -0.536212 21 21 18
-0.958060 0.510938 -0.757306 0 1 0
-0.748333 0.519178 -0.699191 31 30 31
0.509602 0.494721 -0.550783 41 36 33
0.790682 0.482233 -0.557034 42 37 36
1.377039 0.395789 -0.632492 9 9 7
-0.878839 0.596306 -0.641239 0 1 0
-0.542981 0.573841 -0.657097 22 25 24
1.162580 0.478920 -0.636483 52 48 37
1.149133 0.478484 -0.663943 63 59 50
1.559500 0.698547 -0.152719 3 5 3
-0.908519 0.505155 -0.709608 132 133 135
-0.139292 0.509128 -0.564851 42 37 34
1.572352 0.406865 -0.521926 128 133 136
1.608067 0.427242 -0.487310 1 2 1
1.656647 0.503178 -0.328465 15 18 17
-0.946907 0.516626 -0.741074 0 1 0
1.652179 0.518956 -0.323896 14 17 15
-0.959543 0.494198 -0.795556 0 1 0
-0.774524 0.534425 -0.712311 18 19 22
0.322607 0.520645 -0.603798 25 26 20
1.211411 0.463016 -0.580200 24 24 20
1.563740 0.575707 -0.295360 50 52 49
-0.524777 0.581658 -0.647127 22 21 21
0.771241 0.508286 -0.602108 42 39 28
0.561900 0.522502 -0.661292 66 60 57
1.276694 0.467215 -0.660626 16 16 14
1.146934 0.487208 -0.668147 42 39 37
1.068964 0.091493 -0.657930 95 81 78
1.075164 0.079411 -0.672370 76 61 57
1.333921 0.026207 -0.696376 139 120 115
1.417133 0.019478 -0.693354 138 131 126
-0.926722 0.180071 -0.769493 52 37 35
-0.289831 0.144588 -0.723038 169 147 143
0.798159 0.076184 -0.701553 44 27 27
-0.861943 0.185812 -0.768363 156 137 135
-0.860283 0.205088 -0.770354 73 56 56
1.167159 0.089244 -0.675130 40 30 29
0.852585 0.115921 -0.714667 40 30 29
-0.878866 0.229112 -0.771381 45 31 36
0.540588 0.168543 -0.677456 59 41 41
0.847078 0.145519 -0.686795 41 36 33
0.740574 0.168032 -0.682193 149 130 124
1.234047 0.138697 -0.652929 26 31 25
-0.881653 0.168471 -0.775895 116 98 98
0.822206 0.043454 -0.761819 31 24 21
-0.726709 0.198517 -0.758994 48 37 34
0.119854 0.186750 -0.696967 52 41 41
0.748816 0.132265 -0.676682 143 125 121
0.769520 0.139238 -0.656110 145 122 119
-0.894628 0.236116 -0.758212 42 33 35
-0.913726 0.249471 -0.750139 43 35 36
0.694817 0.138681 -0.710944 157 136 134
-0.785284 0.509445 -0.681765 29 29 28
-0.084801 0.509993 -0.585521 46 41 38
-0.628069 0.550397 -0.681027 25 26 25
-0.565841 0.566405 -0.642003 13 13 14
-0.566731 0.590813 -0.695093 2 3 2
0.052303 0.595679 -0.596643 6 8 7
-0.546153 0.608764 -0.681029 0 1 0
-0.268061 0.021262 -0.715469 141 114 109
-0.012433 0.056080 -0.715558 161 143 140
-0.076289 0.500003 -0.578290 35 31 28
-0.303412 0.537653 -0.630479 51 48 39
0.081654 0.528652 -0.612392 36 34 30
0.102211 0.526228 -0.598342 63 58 48
-0.580571 0.563758 -0.666040 17 22 18
0.375553 0.531278 -0.600843 14 14 10
0.948949 0.187566 -0.655632 42 36 34
1.078472 0.173186 -0.678256 100 87 79
1.250126 0.167682 -0.672448 47 45 41
1.186553 0.194286 -0.673521 68 67 62
-0.698223 0.299039 -0.749662 34 25 24
0.887792 0.237723 -0.689039 21 21 20
1.669420 0.271997 -0.526772 141 148 148
-1.071469 0.360287 -0.731791 0 0 0
1.686746 0.296081 -0.485931 144 150 148
1.722452 0.318557 -0.451821 0 1 0
-0.975574 0.267130 -0.754978 100 91 92
-0.934708 0.268073 -0.743525 59 39 41
1.227993 0.166339 -0.674638 33 34 27
1.655357 0.176065 -0.600754 172 184 182
-0.555970 0.266686 -0.729402 180 155 158
0.970870 0.203209 -0.670596 24 20 19
1.029866 0.214564 -0.668049 28 21 20
1.107417 0.204945 -0.675215 9 8 7
0.271830 0.255893 -0.682235 34 23 23
1.094548 0.217394 -0.684583 20 20 17
-0.971628 0.350926 -0.718458 168 168 175
1.180508 0.234258 -0.673396 40 32 31
1.215405 0.233734 -0.666339 69 68 63
1.236965 0.226876 -0.663717 81 70 68
1.255299 0.237959 -0.662855 90 80 78
1.721900 0.309751 -0.465264 0 2 0
1.330731 0.232218 -0.675974 73 66 63
1.622142 0.270251 -0.562161 153 157 159
1.741912 0.326482 -0.421621 0 1 0
-0.374056 0.330891 -0.704965 47 31 31
-0.193436 0.329580 -0.691782 51 39 42
-0.176402 0.330684 -0.700595 40 34 34
0.479484 0.312907 -0.673694 41 31 32
0.763255 0.293779 -0.669236 92 86 86
-0.832743 0.411575 -0.687171 51 42 36
-0.823407 0.402077 -0.694184 57 49 40
0.020139 0.357293 -0.680761 175 150 143
0.114536 0.350715 -0.679919 85 75 73
0.154404 0.349238 -0.673916 47 37 37
0.365705 0.360021 -0.652066 17 12 11
0.678371 0.328496 -0.643395 26 22 23
0.696591 0.340818 -0.645787 24 23 22
0.933758 0.308542 -0.657111 26 23 23
0.022227 0.376236 -0.665880 59 36 33
0.095530 0.365642 -0.672716 158 142 139
0.118661 0.367167 -0.670246 81 69 68
0.146160 0.367850 -0.662929 52 42 44
0.481905 0.339998 -0.699422 37 31 31
0.760170 0.326174 -0.671932 145 126 128
-0.840273 0.424850 -0.694788 58 54 49
0.098352 0.383374 -0.657978 82 75 69
-0.850646 0.431895 -0.707889 45 36 37
-0.808576 0.443011 -0.699321 33 24 19
0.440500 0.377234 -0.641464 14 16 14
0.743490 0.350038 -0.658576 112 98 97
0.820722 0.359712 -0.660216 132 117 114
0.947701 0.378895 -0.607485 1 3 0
1.165310 0.378452 -0.573829 6 9 6
-0.851647 0.455390 -0.713152 41 45 45
-0.634472 0.453536 -0.674765 45 42 35
0.246486 0.441161 -0.584311 9 10 8
1.234066 0.364632 -0.623457 28 26 23
-0.867363 0.461029 -0.715948 59 55 64
0.025943 0.445929 -0.631110 20 15 11
0.259364 0.453632 -0.580640 11 13 10
0.343642 0.443667 -0.601565 12 8 2
-0.755468 0.478024 -0.689446 13 5 2
-0.609181 0.483003 -0.661913 0 1 0
-0.142071 0.476715 -0.596723 19 16 14
0.263079 0.473369 -0.573895 13 15 13
0.333975 0.456269 -0.601324 30 28 20
0.541360 0.430731 -0.609759 10 12 10
0.976823 0.418197 -0.591804 13 15 11
-0.821537 0.489855 -0.697634 47 44 52
-0.116354 0.506156 -0.562581 37 35 31
1.311129 0.407676 -0.599290 0 1 0
-0.420805 0.500113 -0.650679 38 34 28
0.549063 0.453384 -0.586687 9 12 10
1.022096 0.444557 -0.566323 21 22 19
-0.078159 0.236393 -0.699003 42 40 34
0.007038 0.242980 -0.695444 159 145 144
1.149071 0.205261 -0.664136 11 11 9
-0.203807 0.269301 -0.707279 67 57 56
0.193948 0.247004 -0.687465 112 92 88
0.293980 0.268528 -0.668755 43 22 28
1.198249 0.216986 -0.663194 49 46 44
0.225818 0.279395 -0.680836 80 68 61
0.339701 0.280238 -0.691830 16 17 17
0.350801 0.274723 -0.688757 21 20 18
0.611021 0.275350 -0.667661 43 27 27
-0.372609 0.317659 -0.705273 49 29 29
-0.083111 0.306942 -0.700758 151 129 126
0.285922 0.293285 -0.676453 38 30 27
-0.727167 0.353965 -0.707546 2 4 3
-0.388844 0.334793 -0.712753 67 49 45
0.455114 0.299268 -0.681609 14 19 15
1.094615 0.270428 -0.663164 15 16 14
1.113673 0.266830 -0.667692 13 14 12
-0.357160 0.366465 -0.667154 59 38 34
0.683212 0.303630 -0.660407 18 18 17
0.059889 0.335618 -0.688087 137 116 113
0.174243 0.346138 -0.675373 30 25 28
0.862768 0.562261 -0.656934 0 1 0
-1.006130 0.288097 -0.727012 149 127 129
-0.683436 0.254805 -0.760709 52 38 37
-0.267334 0.232687 -0.726348 42 33 31
0.503903 0.191948 -0.685026 8 8 7
0.723294 0.185789 -0.690217 96 87 84
0.874988 0.166988 -0.705043 22 22 18
0.881060 0.143759 -0.705907 18 19 16
0.920370 0.160040 -0.679903 23 22 19
0.943415 0.163886 -0.675168 16 18 16
0.958453 0.160702 -0.685970 25 24 22
0.980997 0.154412 -0.680995 31 29 27
1.110651 0.146897 -0.680828 13 16 15
1.130269 0.144006 -0.686203 8 11 7
1.139783 0.140425 -0.687415 8 10 8
1.147468 0.139252 -0.693975 9 12 8
1.167370 0.149735 -0.689766 14 15 13
1.246195 0.141468 -0.669341 14 18 14
-1.000095 0.306782 -0.705472 149 127 128
-0.931815 0.282212 -0.732822 52 36 39
-0.289717 0.252240 -0.735579 46 44 36
-0.190159 0.248006 -0.710385 130 113 113
0.656236 0.191826 -0.683584 72 66 65
1.066389 0.173524 -0.672422 66 61 60
1.156773 0.159189 -0.681659 10 12 7
1.493037 0.156385 -0.639934 73 74 68
-0.969231 0.315985 -0.702123 103 79 83
-0.919720 0.324170 -0.700967 36 25 28
-0.891743 0.324398 -0.698845 31 23 26
-0.266514 0.259818 -0.726836 42 32 32
-0.201146 0.253212 -0.711473 118 108 106
-0.174764 0.262742 -0.708306 66 55 53
-0.141488 0.264777 -0.706674 28 24 23
0.264497 0.235218 -0.680910 34 23 23
0.310814 0.225468 -0.692771 27 22 20
0.400230 0.211614 -0.709735 23 21 20
0.598359 0.212465 -0.671194 25 22 20
0.695384 0.204930 -0.682745 82 70 71
0.990963 0.177093 -0.686522 17 17 14
1.079848 0.174128 -0.675244 50 46 43
1.095185 0.182856 -0.681785 7 5 6
1.164005 0.178313 -0.678345 14 17 13
1.178022 0.164322 -0.682400 17 18 15
1.223462 0.171382 -0.679625 13 16 12
1.254882 0.160393 -0.678602 21 23 21
1.263146 0.158093 -0.681350 27 30 28
-0.968392 0.356036 -0.650457 55 45 43
-0.963791 0.338913 -0.676602 47 31 35
-0.928494 0.323478 -0.703456 38 26 29
-0.861944 0.322454 -0.712647 31 26 26
-0.522564 0.283561 -0.730629 123 100 102
-0.274571 0.270731 -0.718881 40 32 29
0.888647 0.192394 -0.707299 26 25 23
1.012897 0.192202 -0.674877 22 16 16
1.308975 0.166942 -0.680161 57 53 47
1.321057 0.171761 -0.676806 51 53 42
-0.889049 0.341782 -0.686332 26 20 22
-0.732728 0.324235 -0.719372 9 8 8
-0.254899 0.279193 -0.724879 46 34 34
0.440662 0.237120 -0.695619 15 17 16
1.000652 0.203398 -0.677737 16 18 16
1.071888 0.197512 -0.677378 15 14 13
1.286749 0.180824 -0.685976 60 60 56
1.296525 0.177440 -0.687587 59 60 55
1.457653 0.182469 -0.652591 41 45 40
-0.884919 0.373149 -0.666062 28 26 25
-0.277881 0.301090 -0.707529 42 34 31
-0.256001 0.307906 -0.704484 41 29 28
-0.246753 0.310135 -0.698319 41 29 29
0.639013 0.241880 -0.686061 30 21 21
0.938788 0.223047 -0.666527 19 19 17
1.184068 0.200851 -0.675516 39 39 36
1.301725 0.197382 -0.685054 58 60 53
-0.938900 0.409701 -0.614092 52 43 47
-0.374385 0.315184 -0.709980 48 32 33
-0.134960 0.317362 -0.704457 26 24 24
0.263734 0.283184 -0.676930 39 27 25
0.292606 0.281795 -0.673485 24 22 19
0.329811 0.281642 -0.691716 17 19 17
0.517043 0.262960 -0.677157 22 23 22
0.615551 0.256278 -0.675012 21 16 16
0.626132 0.259084 -0.675248 22 17 18
0.658218 0.253571 -0.672630 22 18 17
0.971022 0.236073 -0.677843 28 23 21
0.983167 0.235305 -0.666555 18 20 19
1.214656 0.211827 -0.672369 51 54 48
1.306897 0.212271 -0.680908 60 59 53
-0.831329 0.372459 -0.686066 39 37 29
-0.198150 0.321541 -0.691161 36 28 28
0.446021 0.273356 -0.692299 16 19 17
0.936707 0.234144 -0.695207 18 18 18
1.302956 0.216749 -0.679499 76 66 64
-0.880951 0.397477 -0.663037 37 33 30
-0.872471 0.392330 -0.673239 42 35 35
-0.670970 0.375437 -0.681087 45 44 40
-0.362134 0.357461 -0.688969 60 45 40
-0.194010 0.333066 -0.690234 34 26 27
-0.140829 0.334372 -0.703906 26 24 22
-0.078871 0.321452 -0.698011 109 98 96
0.405439 0.287234 -0.698515 19 21 21
0.501284 0.289654 -0.679039 21 23 20
0.750506 0.276610 -0.669176 78 67 65
0.823244 0.265249 -0.670076 42 25 26
0.942395 0.248715 -0.687864 18 19 18
0.953729 0.247480 -0.689830 18 18 17
1.088217 0.253823 -0.670181 15 15 13
1.184461 0.242366 -0.670070 24 26 22
1.244460 0.247176 -0.662383 91 79 79
1.463023 0.228591 -0.638075 25 20 19
1.684174 0.286268 -0.477429 111 123 118
-0.796305 0.393458 -0.683275 53 45 38
-0.717000 0.385885 -0.690792 31 35 31
-0.203186 0.344801 -0.692329 38 27 28
-0.186439 0.340438 -0.698997 32 25 26
-0.177509 0.335640 -0.709217 29 24 26
-0.151859 0.354542 -0.678617 28 24 23
-0.073857 0.344398 -0.694783 88 74 76
0.889315 0.270315 -0.673972 24 22 19
0.949336 0.263262 -0.678847 18 18 16
0.963363 0.263187 -0.676396 16 16 16
-1.021001 0.279632 -0.746049 157 133 133
-0.965438 0.279650 -0.738356 101 75 73
-0.889507 0.282285 -0.727789 49 31 32
-0.092903 0.234333 -0.705845 18 19 16
-0.076716 0.221329 -0.710310 22 23 20
0.428215 0.187966 -0.708338 23 17 17
0.439050 0.187453 -0.708990 22 18 18
0.869772 0.174339 -0.680260 29 23 21
0.940976 0.166025 -0.674540 19 21 18
1.007993 0.167895 -0.678920 23 21 19
1.041670 0.166089 -0.672444 31 27 26
1.063546 0.164694 -0.673635 71 67 65
1.092255 0.159970 -0.681416 32 28 27
1.102969 0.158349 -0.681400 22 17 16
1.207762 0.148877 -0.683692 9 10 8
1.437101 0.130757 -0.656174 16 18 15
1.449592 0.133315 -0.654817 20 22 20
1.593613 0.112886 -0.677887 28 28 29
-1.033959 0.306184 -0.713813 107 97 100
-0.949420 0.297396 -0.715438 53 35 34
-0.918475 0.293911 -0.718234 51 35 39
-0.872300 0.289031 -0.725874 37 29 29
-0.360849 0.251677 -0.722526 41 37 29
-0.319743 0.247825 -0.724875 39 37 30
-0.124926 0.240895 -0.705883 29 25 22
-0.082080 0.245799 -0.706241 37 34 29
-0.027124 0.232801 -0.705956 32 31 28
0.605026 0.199857 -0.673430 21 21 20
0.939805 0.176436 -0.683901 18 20 18
0.958008 0.179733 -0.676516 17 19 17
1.066360 0.175735 -0.673567 65 62 60
1.077425 0.174888 -0.673995 59 53 54
1.084888 0.172148 -0.680466 35 31 29
1.092059 0.170155 -0.684896 18 14 13
1.199014 0.161264 -0.685328 12 13 8
1.321537 0.161551 -0.659973 68 65 58
1.693159 0.158257 -0.614988 5 6 7
-1.010071 0.318319 -0.683785 145 124 127
-0.690099 0.268819 -0.768101 48 36 33
-0.644976 0.275204 -0.739999 50 37 36
0.308552 0.222689 -0.696481 34 30 29
0.472727 0.212632 -0.697935 17 20 17
0.504152 0.206503 -0.683133 8 7 6
1.153406 0.180832 -0.673283 10 13 9
1.314962 0.168112 -0.674697 63 60 55
1.692760 0.168371 -0.594891 7 13 10
1.697325 0.144513 -0.665602 0 1 0
-1.018186 0.337015 -0.665465 95 82 85
-0.997422 0.332474 -0.674892 119 99 101
-0.987186 0.328757 -0.678908 117 96 95
-0.682102 0.286713 -0.751969 43 33 31
-0.044840 0.258822 -0.703234 37 34 31
0.380753 0.225476 -0.707747 19 20 16
0.392220 0.225958 -0.705725 20 20 18
0.401056 0.220634 -0.715890 23 19 20
0.437720 0.224289 -0.698271 14 16 14
1.144431 0.193711 -0.673939 10 11 9
1.207039 0.186048 -0.676464 34 35 32
1.444669 0.174765 -0.655618 50 50 47
-1.004416 0.355963 -0.647618 89 78 84
-0.920782 0.330761 -0.697574 32 22 24
-0.605531 0.302396 -0.728072 49 34 32
-0.294774 0.286277 -0.711026 39 35 28
-0.283093 0.275484 -0.728725 46 36 34
-0.184405 0.277429 -0.708472 41 29 29
-0.106297 0.275789 -0.700867 37 37 35
-0.095108 0.275719 -0.699497 59 59 57
0.373319 0.239171 -0.702747 16 18 14
0.548474 0.239456 -0.679648 22 21 19
0.661790 0.227441 -0.680497 29 24 23
0.750569 0.234551 -0.675006 87 83 79
1.060446 0.212161 -0.670779 15 16 14
1.288883 0.188445 -0.684924 60 59 54
1.319286 0.187779 -0.682564 59 57 51
1.336320 0.188277 -0.676503 47 46 39
1.345861 0.187045 -0.679845 37 37 31
-0.976494 0.384804 -0.608731 89 80 90
-0.959862 0.359661 -0.655152 32 16 22
-0.925380 0.346562 -0.681997 27 18 21
-0.941398 0.349242 -0.678715 26 16 19
-0.897264 0.354741 -0.684133 32 28 27
-0.318411 0.302912 -0.703761 42 33 30
-0.215503 0.294812 -0.703573 42 27 30
-0.203000 0.293908 -0.703759 32 26 24
0.443337 0.250537 -0.690941 16 17 16
0.560378 0.248683 -0.677250 25 19 20
0.613440 0.245189 -0.674725 24 19 18
1.072516 0.219480 -0.673031 14 14 13
1.091236 0.216852 -0.679237 11 12 11
1.313186 0.199497 -0.682216 60 59 51
1.404584 0.202096 -0.659298 62 54 51
1.417727 0.211430 -0.650034 49 46 41
1.440081 0.202063 -0.652840 20 19 14
-0.876012 0.355353 -0.678439 31 28 26
-0.631943 0.334828 -0.708795 41 28 28
0.416597 0.254781 -0.704624 17 18 16
0.568596 0.267600 -0.683893 27 23 22
0.616753 0.256634 -0.672469 20 18 16
0.895917 0.234864 -0.689332 21 20 18
0.985436 0.245570 -0.668912 17 19 18
1.096109 0.232791 -0.666448 12 14 11
-0.961216 0.407588 -0.608509 81 74 77
-0.876406 0.369900 -0.671890 36 32 30
-0.854275 0.361195 -0.687833 37 34 30
-0.717221 0.352217 -0.711124 2 5 5
-0.513452 0.329398 -0.724580 121 103 103
-0.168256 0.313749 -0.703149 22 20 21
0.333323 0.282783 -0.688725 20 19 18
0.416240 0.276383 -0.689507 15 17 15
0.487644 0.276423 -0.677600 19 22 20
0.585797 0.270967 -0.673785 24 21 20
1.403639 0.232111 -0.649167 74 67 62
1.426401 0.234632 -0.648413 69 60 56
-0.995447 0.411989 -0.638534 225 215 223
-0.578353 0.336671 -0.717762 49 29 33
-0.362598 0.347150 -0.687350 56 39 40
-0.333121 0.345942 -0.687480 48 35 31
-0.311546 0.334340 -0.687598 48 36 35
-0.289734 0.336340 -0.696041 47 36 34
-0.259488 0.337083 -0.691229 42 31 32
-0.242052 0.337176 -0.683718 45 34 33
-0.078310 0.321119 -0.697945 110 101 97
-0.062117 0.318320 -0.698103 145 128 127
0.272572 0.303380 -0.678152 35 26 24
0.611398 0.279335 -0.674725 23 20 19
0.673441 0.276130 -0.677572 21 20 22
0.896827 0.268204 -0.676330 23 22 19
0.968706 0.250117 -0.678881 17 18 16
1.013706 0.270373 -0.639863 16 18 17
-0.996508 0.399860 -0.688780 229 219 226
-0.370371 0.366648 -0.672014 49 36 35
-0.233751 0.356334 -0.680779 40 28 29
-0.161506 0.341388 -0.692053 29 24 25
0.407979 0.299192 -0.697749 20 22 21
0.559632 0.295100 -0.680735 27 21 22
0.587840 0.291599 -0.682528 25 22 19
1.081732 0.283943 -0.634886 14 16 15
1.335522 0.246616 -0.678095 61 58 54
-0.776451 0.502112 -0.672597 25 26 21
0.324697 0.475238 -0.599166 26 27 22
0.667692 0.452609 -0.592639 17 19 17
0.774493 0.456626 -0.566981 12 13 12
1.053676 0.455407 -0.550743 20 21 19
1.159208 0.441809 -0.561081 10 12 9
-0.148471 0.516223 -0.592785 37 34 28
-0.147108 0.517890 -0.607246 35 30 26
0.003241 0.498368 -0.603549 33 34 29
0.088564 0.493624 -0.613475 42 38 32
0.716632 0.463756 -0.586887 21 22 21
0.807795 0.470725 -0.553645 13 15 14
1.100927 0.473098 -0.530516 20 21 20
1.345424 0.455036 -0.528068 0 1 0
1.347263 0.447444 -0.544715 0 1 1
-0.958492 0.495186 -0.761283 0 1 0
-0.706728 0.518128 -0.677835 14 15 14
0.394817 0.496380 -0.594691 38 35 30
0.409740 0.498762 -0.586770 32 31 28
0.449620 0.504356 -0.573721 30 29 25
0.609527 0.484788 -0.584074 27 28 24
0.735742 0.479764 -0.575873 24 24 23
0.847550 0.474351 -0.569171 11 12 7
0.887294 0.478403 -0.564962 17 17 13
1.035163 0.465814 -0.568415 20 22 20
1.077814 0.474686 -0.555465 19 21 19
1.492545 0.483352 -0.490277 26 30 28
1.628783 0.544128 -0.328475 0 5 1
-0.716475 0.525432 -0.687944 18 20 21
-0.696061 0.519775 -0.697561 19 19 18
-0.272582 0.530912 -0.627522 1 1 0
-0.242759 0.531168 -0.624057 4 5 1
0.059059 0.515613 -0.608632 12 14 9
0.069685 0.514058 -0.610236 31 33 26
0.224096 0.503830 -0.621096 28 29 23
0.535343 0.494534 -0.600164 19 20 15
0.599840 0.498847 -0.580544 27 26 22
0.685250 0.487719 -0.591393 29 29 27
0.736010 0.490971 -0.577415 24 23 22
0.800286 0.477637 -0.594702 15 17 14
0.875770 0.479335 -0.602434 22 21 18
-0.904722 0.511609 -0.773732 0 1 0
-0.707010 0.539733 -0.693722 23 24 24
-0.683903 0.531754 -0.695300 20 24 23
-0.628873 0.534283 -0.681633 8 10 7
-0.610063 0.546529 -0.673952 13 14 12
-0.590734 0.552342 -0.660624 8 10 7
-0.260032 0.547117 -0.628146 0 3 0
-0.182679 0.539376 -0.622542 47 42 36
-0.068662 0.511205 -0.663708 38 38 30
0.027244 0.528855 -0.608726 14 13 8
0.092461 0.523285 -0.612579 42 40 34
0.735509 0.499337 -0.586621 22 22 21
-0.873740 0.526635 -0.764471 0 1 0
-0.553941 0.572558 -0.649769 16 16 14
-0.540759 0.561775 -0.632976 6 5 2
-0.421112 0.520249 -0.718091 52 44 36
-0.241310 0.553154 -0.627728 1 3 0
0.183911 0.517287 -0.634997 24 25 22
0.373132 0.528979 -0.605182 10 10 7
0.542821 0.497886 -0.641967 34 35 27
-0.704119 0.560494 -0.686950 10 12 11
-0.540836 0.579727 -0.641433 11 12 8
-0.494438 0.579620 -0.638173 25 21 15
-0.234966 0.557591 -0.626438 5 6 3
-0.223302 0.555897 -0.626933 8 9 6
-0.209549 0.561999 -0.624922 18 18 14
0.085299 0.546411 -0.614757 27 25 21
0.417551 0.530200 -0.618754 39 36 32
0.653950 0.524353 -0.591429 0 1 0
1.792364 0.711449 -0.057385 0 1 0
-0.578640 0.575332 -0.661011 15 16 13
-0.231775 0.573561 -0.631773 5 7 2
-0.215131 0.579921 -0.626374 5 5 1
0.039760 0.560459 -0.618068 1 2 0
0.141423 0.551043 -0.642673 39 39 31
0.677501 0.530628 -0.602991 7 7 5
0.996694 0.521181 -0.597509 1 1 0
1.403121 0.533386 -0.508364 22 23 22
1.786403 0.721643 -0.061282 0 1 0
-0.566022 0.587339 -0.658123 2 3 0
-0.556476 0.589784 -0.667853 3 5 4
-0.540422 0.596739 -0.646458 3 4 2
0.058241 0.573203 -0.626197 5 6 3
0.922690 0.559334 -0.555266 1 1 0
0.962610 0.531624 -0.604345 0 0 0
0.975465 0.532210 -0.600560 0 0 0
1.522576 0.588092 -0.406108 1 1 1
-0.672487 0.607649 -0.657372 0 0 0
0.639112 0.556675 -0.603524 0 1 0
0.701409 0.536571 -0.639780 12 14 10
0.987270 0.543161 -0.600380 0 0 0
-1.107644 0.411763 -0.629925 0 1 0
-1.001415 0.450317 -0.545365 233 220 228
-0.989358 0.438685 -0.567549 212 195 203
-0.599478 0.352347 -0.717474 14 5 3
-0.572364 0.347409 -0.713981 29 20 22
-0.168354 0.344245 -0.698378 29 23 27
-0.122803 0.332705 -0.705773 36 27 25
0.848769 0.285942 -0.669358 26 19 17
0.924275 0.281032 -0.667562 24 20 17
1.048212 0.315772 -0.596957 14 15 13
-0.880134 0.407101 -0.663896 31 27 25
-0.829606 0.394387 -0.687891 51 44 36
-0.817701 0.395424 -0.682863 46 40 31
-0.643559 0.384226 -0.682237 52 52 46
-0.330279 0.385606 -0.646823 49 35 33
-0.172678 0.356027 -0.688368 30 24 26
-0.104656 0.349328 -0.690731 38 32 32
-0.077065 0.344569 -0.697296 79 61 59
0.532059 0.316018 -0.682117 18 20 17
0.683172 0.315191 -0.660411 10 13 11
0.699640 0.309223 -0.670809 15 16 15
1.242254 0.282367 -0.664716 60 57 55
1.478069 0.284841 -0.628515 3 3 2
1.504361 0.294347 -0.608734 4 7 5
-1.059365 0.411740 -0.707022 3 3 3
-0.839770 0.405024 -0.691452 47 41 33
-0.582559 0.390525 -0.703182 10 9 5
-0.118073 0.368280 -0.685876 51 37 38
-0.075377 0.357383 -0.692792 45 34 30
0.712782 0.323816 -0.661592 9 19 18
0.756156 0.318848 -0.667440 86 81 82
0.777383 0.316852 -0.667079 92 86 85
0.789210 0.314461 -0.664936 92 86 82
0.843794 0.312375 -0.665507 45 39 35
1.104299 0.311080 -0.625120 10 14 11
1.261819 0.301273 -0.644051 32 30 27
-1.089107 0.427418 -0.687893 0 1 0
-1.055617 0.429793 -0.683524 1 2 1
-0.840866 0.416190 -0.691396 42 38 35
-0.815630 0.415453 -0.678484 42 34 26
-0.699667 0.403369 -0.698073 76 67 64
-0.459949 0.369510 -0.732575 153 130 128
0.216211 0.356106 -0.684878 31 24 24
0.298771 0.358043 -0.655960 36 24 23
0.629988 0.348124 -0.646782 10 12 11
1.069658 0.370380 -0.545517 10 12 10
0.452784 0.374775 -0.642859 14 15 13
0.804549 0.340189 -0.662265 90 84 79
0.814446 0.337132 -0.666152 90 84 79
0.828648 0.341497 -0.656743 89 82 74
0.976460 0.352005 -0.627104 7 10 7
1.082846 0.386237 -0.532856 4 8 6
-0.603621 0.428484 -0.672789 9 4 4
-0.591506 0.428865 -0.672575 5 3 3
-0.538174 0.405125 -0.688847 36 34 30
-0.532994 0.417237 -0.689459 39 40 34
-0.471036 0.408869 -0.698550 8 4 3
-0.448538 0.409158 -0.696297 19 15 12
-0.433052 0.414275 -0.681170 33 25 23
0.107978 0.396548 -0.660784 29 18 16
0.334737 0.400886 -0.630094 2 1 1
0.653275 0.379280 -0.626171 0 1 0
1.397949 0.346094 -0.610635 3 9 4
-1.065524 0.454312 -0.698185 2 2 0
-0.453135 0.429638 -0.679410 16 8 7
-0.184970 0.445649 -0.620376 27 24 21
-0.106769 0.421806 -0.648897 25 17 17
0.124494 0.420309 -0.643098 18 15 10
0.294039 0.408333 -0.624828 25 21 19
0.304883 0.408871 -0.626494 20 18 16
0.341486 0.417435 -0.618393 1 2 0
0.689828 0.390579 -0.620798 13 14 13
0.767184 0.385682 -0.622451 14 13 9
0.844324 0.363249 -0.654840 54 44 40
1.179502 0.390133 -0.567108 4 5 4
-0.845266 0.451813 -0.704365 36 31 31
-0.424900 0.457255 -0.644810 24 21 18
0.052626 0.433531 -0.634624 9 9 6
0.645780 0.414296 -0.602227 0 1 0
0.745197 0.400226 -0.626458 0 1 0
0.824481 0.407994 -0.613277 17 16 11
1.332812 0.381218 -0.588170 0 1 0
0.784892 0.420465 -0.591036 1 3 0
1.151691 0.414290 -0.564322 7 9 6
1.159961 0.414199 -0.568944 6 7 4
1.172865 0.417527 -0.565985 4 5 1
-0.572352 0.488331 -0.646195 1 1 0
-0.559210 0.491404 -0.634894 11 11 8
-0.529564 0.482572 -0.648629 48 44 39
0.406675 0.457286 -0.589855 26 26 24
0.446138 0.459425 -0.584332 17 17 13
0.492779 0.442537 -0.604053 11 11 9
1.295241 0.433708 -0.529895 0 2 0
-1.007675 0.267629 -0.722034 151 127 129
-0.833563 0.234688 -0.766546 95 80 73
-0.807556 0.234024 -0.763396 89 62 56
-0.788107 0.239550 -0.750134 65 49 43
-0.369806 0.222343 -0.723182 47 41 36
-0.359084 0.213129 -0.731771 40 33 29
0.176843 0.200385 -0.696548 90 75 74
0.386252 0.181568 -0.704704 28 26 26
0.617984 0.170918 -0.686219 25 23 23
0.819430 0.172128 -0.674833 78 71 65
1.011924 0.163065 -0.674245 31 28 27
1.341710 0.146676 -0.665533 30 29 23
1.350828 0.133135 -0.686156 17 18 14
1.621572 0.111445 -0.704144 146 154 151
-1.146781 0.374054 -0.486087 3 1 0
-0.988489 0.266914 -0.745574 156 133 131
-0.788196 0.246248 -0.758365 53 41 38
-0.777470 0.246207 -0.756370 54 41 38
-0.048372 0.223300 -0.706945 30 31 26
0.258807 0.211843 -0.683443 41 24 24
0.349935 0.211150 -0.697984 15 17 13
0.992241 0.174698 -0.676416 16 18 16
1.337808 0.150641 -0.683697 26 27 19
1.366885 0.159015 -0.655395 18 18 16
1.361931 0.148910 -0.684993 17 18 13
1.378479 0.147469 -0.685235 13 16 10
1.403712 0.149348 -0.678754 13 15 10
1.414373 0.149182 -0.677684 23 26 21
1.432064 0.145075 -0.683548 54 57 52
1.615029 0.178675 -0.582044 39 33 37
1.683413 0.152940 -0.615264 39 44 43
-1.113339 0.371516 -0.515640 40 39 38
-0.985550 0.282397 -0.733103 161 136 133
-0.439667 0.257875 -0.724945 162 135 132
-0.058926 0.225989 -0.704992 24 25 21
0.339557 0.210589 -0.696781 16 18 16
0.378004 0.201870 -0.720136 20 21 19
0.736274 0.200717 -0.681798 88 79 75
0.747288 0.202034 -0.681760 99 87 86
1.359635 0.161441 -0.683108 23 26 17
1.384551 0.162370 -0.678031 22 23 18
1.715361 0.208410 -0.514292 50 54 52
1.721151 0.204529 -0.518867 1 2 1
-1.135136 0.353863 -0.589583 0 1 0
1.357089 0.180039 -0.666811 32 32 29
1.669423 0.224825 -0.519179 172 177 179
1.393405 -0.031596 -1.156781 0 1 0
1.397796 -0.026498 -1.167371 0 0 0
-0.972192 0.320174 -0.696440 110 88 91
-0.639113 0.286955 -0.716904 49 35 35
0.231020 0.246324 -0.686841 42 35 30
0.383554 0.227565 -0.700124 19 19 19
0.393621 0.234711 -0.703453 19 19 18
0.662674 0.228122 -0.677369 26 22 22
0.794459 0.220874 -0.672451 71 60 56
1.358337 0.185846 -0.681748 36 33 29
1.505283 0.192256 -0.639879 63 63 60
1.574098 0.216369 -0.588440 110 121 124
1.622777 0.229426 -0.545317 133 142 140
1.722735 0.254472 -0.456416 27 31 30
1.830478 0.286110 -0.374630 1 2 0
-0.955095 0.332020 -0.691319 36 21 25
-0.636591 0.298342 -0.715121 49 36 35
-0.123695 0.279971 -0.700313 31 27 27
0.776988 0.245436 -0.670356 99 90 90
1.101891 0.215614 -0.680833 11 11 10
1.800393 0.298115 -0.385257 0 2 0
-0.910646 0.341209 -0.690165 27 20 22
-0.902096 0.328153 -0.696807 29 22 24
-0.634505 0.311562 -0.711227 47 34 33
-0.316822 0.287566 -0.711697 41 35 31
0.710702 0.248366 -0.674892 87 78 79
0.968220 0.231586 -0.685009 18 19 18
1.223503 0.218706 -0.656338 48 49 45
1.300908 0.209508 -0.689114 57 57 50
1.316204 0.212069 -0.682597 61 57 51
1.328639 0.211269 -0.680070 62 60 55
1.340666 0.211979 -0.676168 63 59 52
1.351067 0.210347 -0.678486 60 56 50
1.357132 0.207474 -0.681595 57 55 50
-0.596016 0.312915 -0.726712 53 35 36
0.766725 0.257724 -0.672438 101 92 90
1.165921 0.246929 -0.672089 14 16 15
1.172137 0.227329 -0.674525 22 23 19
1.273414 0.237836 -0.649317 64 60 58
1.297907 0.224496 -0.674414 70 66 60
1.330590 0.223150 -0.678317 62 59 54
1.340934 0.221296 -0.680589 65 65 55
1.351112 0.221455 -0.680154 64 63 57
1.359946 0.219295 -0.680335 67 65 60
1.371915 0.219105 -0.680620 69 66 61
-0.937739 0.403787 -0.585649 39 29 33
0.871104 0.269790 -0.667256 23 20 20
0.898906 0.259795 -0.675249 23 20 21
1.121753 0.250963 -0.677166 10 12 10
1.136796 0.253409 -0.669938 11 13 12
1.168603 0.264525 -0.632787 12 15 12
1.178455 0.249983 -0.669960 23 23 21
1.198294 0.254883 -0.656693 33 32 30
1.323552 0.236057 -0.676903 60 56 51
1.334008 0.234561 -0.677089 60 60 54
-0.175919 0.327412 -0.701056 28 22 26
0.264516 0.306568 -0.672678 39 27 23
0.613568 0.289002 -0.679057 22 20 18
0.863791 0.290402 -0.663391 23 22 19
1.007878 0.268438 -0.661040 15 17 16
1.067893 0.300734 -0.597337 13 16 15
1.180804 0.265976 -0.656220 19 19 17
-0.833835 0.387370 -0.677226 58 49 44
-0.588533 0.364452 -0.699474 13 8 5
-0.581014 0.345123 -0.730841 22 9 10
-0.428618 0.336793 -0.718157 60 40 40
0.310664 0.313525 -0.676406 33 23 23
0.897778 0.279341 -0.677758 22 20 19
1.155779 0.268602 -0.659207 14 16 15
1.164654 0.262231 -0.671499 17 19 17
1.181798 0.262369 -0.667278 21 22 20
1.329968 0.257521 -0.652477 69 64 58
-0.854755 0.403532 -0.682195 33 25 21
-0.777273 0.386337 -0.696413 29 25 18
-0.767970 0.381948 -0.704558 20 19 12
-0.579104 0.359587 -0.723295 9 6 4
-0.348998 0.365534 -0.671399 50 35 34
-0.201220 0.349071 -0.682445 38 29 28
0.420550 0.310422 -0.690239 20 23 20
0.430762 0.304644 -0.700449 18 21 18
0.527223 0.312702 -0.667555 19 20 18
0.537704 0.310653 -0.671270 18 19 17
0.567124 0.306511 -0.675865 20 20 18
0.576591 0.304074 -0.678342 24 21 19
1.202125 0.271461 -0.670354 23 23 20
1.328418 0.283905 -0.642745 56 47 45
-0.347214 0.396225 -0.627573 48 38 35
0.300923 0.339379 -0.670785 37 25 26
1.055840 0.335203 -0.575948 13 14 13
1.157158 0.307024 -0.625494 12 13 11
-0.971882 0.444363 -0.648959 176 170 174
-0.334711 0.408150 -0.627356 43 33 31
0.489452 0.321825 -0.688203 17 17 17
0.617324 0.330144 -0.664634 19 18 16
0.628297 0.329489 -0.665635 15 15 12
0.915768 0.322916 -0.655405 23 20 18
1.182204 0.325745 -0.602832 11 13 10
1.524589 0.332871 -0.545129 1 2 2
1.582562 0.352807 -0.491134 8 14 16
-0.883322 0.428934 -0.694688 24 24 24
-0.559950 0.413847 -0.673661 15 16 11
0.333847 0.367317 -0.653664 12 10 7
0.538075 0.342751 -0.677778 16 17 16
0.595085 0.349729 -0.649227 18 19 19
1.367592 0.309495 -0.637561 10 9 5
-0.972161 0.442061 -0.691717 204 192 197
-0.153466 0.405609 -0.651513 18 18 16
-0.144187 0.402226 -0.656086 19 20 18
-0.109603 0.402770 -0.651279 38 31 30
0.742284 0.345909 -0.659081 85 81 81
0.956989 0.357621 -0.620982 4 6 2
1.318938 0.310321 -0.668360 4 6 2
0.621912 0.387028 -0.618947 5 7 4
0.665574 0.378483 -0.626521 1 4 1
0.955148 0.374839 -0.607965 2 0 0
1.421311 0.351435 -0.633324 0 2 0
-0.945886 0.455953 -0.703971 66 59 66
-0.896687 0.455007 -0.695877 32 27 28
-0.141243 0.445997 -0.615148 6 5 4
-0.132177 0.440266 -0.625393 6 7 4
0.203603 0.434295 -0.607365 6 6 6
1.188334 0.388016 -0.570338 6 6 5
1.197141 0.385346 -0.574563 8 8 6
-0.933600 0.466366 -0.701805 72 67 73
0.297433 0.444357 -0.598894 18 19 15
0.471153 0.427583 -0.602822 3 4 0
0.477287 0.422074 -0.613405 4 6 1
0.555481 0.407567 -0.632121 10 11 6
0.580780 0.408362 -0.625542 15 16 14
0.635298 0.417795 -0.597078 4 4 2
0.888364 0.396637 -0.622208 18 17 14
-0.923412 0.472341 -0.712327 87 83 88
-0.097943 0.474414 -0.597548 12 15 10
0.477163 0.443473 -0.592864 7 10 7
0.607871 0.432060 -0.590024 15 19 15
1.123016 0.429143 -0.544369 4 6 3
1.840035 0.598548 -0.064061 15 15 15
1.860231 0.594683 -0.066914 0 0 0
1.083977 0.492333 -0.641533 18 18 15
0.651200 0.553703 -0.607854 0 1 0
-0.551522 0.606379 -0.712839 0 0 0
1.338489 0.563043 -0.518260 7 9 7
1.356835 0.557301 -0.516028 13 16 15
1.347244 0.546914 -0.518680 14 14 13
1.370290 0.556177 -0.512290 0 1 0
-0.285772 0.659462 -0.588263 0 1 0
0.716539 0.509426 -0.734484 0 0 0
-0.038386 0.652023 -0.590175 0 1 0
0.933243 0.682835 -0.377274 0 1 0
0.312647 0.747594 -0.367846 0 0 0
0.666815 0.753554 -0.302736 0 0 0
1.422655 0.648861 -0.391094 0 0 0
-0.341827 0.499527 -0.606437 17 17 12
-0.332742 0.495169 -0.613823 19 21 15
-0.135539 0.495978 -0.580354 24 23 22
-0.091449 0.492640 -0.578126 18 18 15
0.134016 0.466719 -0.598355 25 25 20
0.445699 0.447214 -0.590275 12 11 8
0.976707 0.400786 -0.601435 10 12 7
0.985273 0.398254 -0.605748 15 16 11
-0.199994 0.496144 -0.614979 38 37 29
0.934124 0.416616 -0.601672 4 8 4
0.990398 0.413118 -0.599606 20 21 16
1.212792 0.408008 -0.574713 10 11 8
2.007723 0.651347 0.106228 0 1 0
0.003167 0.498506 -0.602703 33 32 28
0.451405 0.473487 -0.584319 22 22 19
0.392011 0.483674 -0.596302 33 33 28
0.526688 0.487446 -0.567432 16 17 15
-0.519556 0.547626 -0.632347 30 27 22
0.216694 0.494728 -0.626644 23 22 20
0.881648 0.470567 -0.569297 12 14 11
0.992738 0.454674 -0.584753 25 26 22
1.000935 0.452592 -0.589597 25 27 22
0.059820 0.526492 -0.611105 4 8 4
1.008629 0.454179 -0.594936 23 25 22
-0.285394 0.565037 -0.634016 1 1 0
0.329613 0.542159 -0.606198 2 3 0
0.622046 0.527421 -0.593877 20 19 14
0.027806 0.569159 -0.625767 0 1 0
1.785841 0.688148 -0.081140 0 2 0
1.863565 0.733806 0.027511 0 1 0
0.193582 0.517827 -0.703899 29 29 25
0.695455 0.529201 -0.600990 19 21 20
0.929436 0.513726 -0.599013 7 8 3
1.081499 0.482112 -0.638179 16 17 13
-0.172348 0.591760 -0.635134 1 1 0
0.673828 0.541145 -0.606789 1 2 0
-0.189792 0.609688 -0.626554 0 1 0
-0.167822 0.609170 -0.623585 0 1 0
0.777936 0.506437 -0.683756 16 18 15
-0.157426 0.615763 -0.632980 0 1 0
0.350818 0.580640 -0.624927 0 1 0
0.363253 0.581192 -0.621453 0 1 0
0.960091 0.540488 -0.612671 0 0 0
0.112312 0.612312 -0.621396 0 1 0
